# .PCD v0.7 - Point Cloud Data file format
VERSION 0.7
FIELDS x y z
SIZE 4 4 4
TYPE F F F
COUNT 1 1 1
WIDTH 51
HEIGHT 1
VIEWPOINT 0 0 0 1 0 0 0
POINTS 51
DATA ascii
0.02105474472 -0.01589274406 0.05337846279 
0.01985311508 -0.01319980621 0.06498622894 
0.01081037521 -0.01452338696 0.06891441345 
0.01796162128 -0.007605791092 0.0884937048 
0.005024313927 -0.01091241837 0.08865380287 
-0.008076906204 -0.01428055763 0.0887401104 
0.01976215839 -0.01685535908 0.01323413849 
0.023452878 -0.01162517071 0.02994728088 
0.0253405571 -0.007349133492 0.04474174976 
0.02611708641 -0.003665924072 0.05833399296 
0.02149116993 -0.002744913101 0.06655323505 
0.02060246468 5.81741333e-05 0.07837748528 
0.01811587811 0.002038598061 0.08859014511 
0.004956245422 -0.001350879669 0.08852672577 
-0.008071660995 -0.004652500153 0.08867383003 
0.02461075783 -0.007962226868 0.005025029182 
0.02584862709 -0.004012346268 0.01934564114 
0.02635955811 -0.0004569292068 0.03283953667 
0.02631306648 0.002793610096 0.04568982124 
0.02574503422 0.005760371685 0.05794394016 
0.02119088173 0.006706893444 0.06622624397 
0.0180516243 0.008355140686 0.07585799694 
0.01687407494 0.01097118855 0.08734023571 
0.005040764809 0.008273124695 0.08854603767 
-0.00803399086 0.004977285862 0.08863830566 
0.02575266361 0.002358317375 0.006193041801 
0.02559328079 0.005561888218 0.01909434795 
0.02488470078 0.00846862793 0.03136456013 
0.02385020256 0.01119345427 0.04323661327 
0.02252447605 0.01375520229 0.05475175381 
0.01911044121 0.01526212692 0.06415951252 
0.01077711582 0.01432174444 0.06875252724 
0.01036942005 0.01730209589 0.08101427555 
0.005228638649 0.01793301105 0.0886644125 
-0.007853507996 0.01466268301 0.08873903751 
0.02344608307 0.01092725992 0.003878474236 
0.02231061459 0.01361405849 0.01580572128 
0.02062177658 0.01600819826 0.02711081505 
0.01869046688 0.01826655865 0.0381128788 
0.01647436619 0.02036958933 0.04877614975 
0.01366519928 0.02216696739 0.05880439281 
0.007235169411 0.0221760273 0.06527078152 
-0.003728628159 0.0199674964 0.06736421585 
0.01629662514 0.02033501863 0.009776949883 
0.01354205608 0.02218830585 0.02004945278 
0.01027989388 0.02378058434 0.02977049351 
0.006308794022 0.02501571178 0.03875184059 
0.001640558243 0.02590304613 0.04701936245 
-0.005341768265 0.02566021681 0.05301678181 
0.001619815826 0.02606278658 0.008161306381 
-0.005508422852 0.02577781677 0.01412212849 
