# .PCD v0.7 - Point Cloud Data file format
VERSION 0.7
FIELDS x y z
SIZE 4 4 4
TYPE F F F
COUNT 1 1 1
WIDTH 1142
HEIGHT 1
VIEWPOINT 0 0 0 1 0 0 0
POINTS 1142
DATA ascii
0.009867921472 0.1097625494 0.2872813344 
0.008208498359 0.11001423 0.2871745825 
0.00655823946 0.1102565527 0.287052393 
0.004913106561 0.1104947925 0.2869238853 
0.003287658095 0.110708952 0.2867543101 
0.001664236188 0.1109229028 0.2865850925 
7.094442844e-05 0.111097604 0.2863482237 
-0.001510381699 0.1112577915 0.2860865593 
-0.003090158105 0.11141783 0.2858251929 
-0.004683598876 0.1115991175 0.2856014371 
-0.006280526519 0.1117876768 0.2853910327 
-0.007875591516 0.1119759679 0.2851807475 
-0.009460419416 0.1121519208 0.2849494815 
-0.01099568605 0.1122581959 0.2845965624 
-0.0124810636 0.1122929752 0.2841185927 
-0.01395557821 0.1123122573 0.283613503 
-0.0154299289 0.1123315692 0.283108592 
-0.01690411568 0.1123508811 0.2826036811 
-0.0183711648 0.1123597324 0.2820804119 
-0.01983134449 0.1123583615 0.2815391421 
-0.02127581835 0.1123330891 0.2809557319 
-0.02271527052 0.1122997701 0.2803580165 
-0.02415497601 0.1122664511 0.2797601819 
-0.02559499443 0.1122331321 0.2791622281 
-0.02703529596 0.1121998131 0.2785641551 
-0.02844981849 0.1121254563 0.2778932452 
-0.02981495857 0.1119719446 0.2770816684 
-0.03118138015 0.1118182838 0.2762692571 
-0.03254906833 0.111664474 0.2754561305 
-0.03391802311 0.1115105152 0.2746422291 
-0.03528822958 0.1113564074 0.2738276124 
-0.03664748371 0.1111820936 0.2729763985 
-0.03796581924 0.1109375656 0.2719994187 
-0.03923085332 0.1106007397 0.2708567977 
-0.04049803317 0.1102625728 0.2697106004 
-0.04175162315 0.1098963916 0.2685132623 
-0.04300799966 0.109529376 0.267313242 
-0.04426713288 0.1091615558 0.2661105394 
-0.04552900791 0.108792901 0.2649051547 
-0.04677560925 0.1083919406 0.2636405826 
-0.04799206555 0.1079318523 0.262268424 
-0.04921706021 0.1074796319 0.2609089613 
-0.05044534802 0.1070262194 0.2595458031 
-0.05166992545 0.1065589488 0.25815624 
-0.0529012233 0.1060963273 0.2567735314 
-0.05410817266 0.1055817902 0.2552955747 
-0.05530832708 0.1050463617 0.2537782192 
-0.0565122813 0.1045092344 0.2522560358 
-0.05772009492 0.1039704084 0.2507290244 
-0.05893172324 0.1034298241 0.2491970658 
-0.06014724076 0.1028875113 0.2476602197 
-0.06130707264 0.102229178 0.2459110022 
-0.06245842576 0.1015431583 0.2441093326 
-0.06361021101 0.1008462012 0.2422855496 
-0.06475740671 0.100127995 0.2404208779 
-0.06591582298 0.09941956401 0.2385715842 
-0.06708264351 0.09871530533 0.2367276549 
-0.0682335645 0.09796643257 0.2347999811 
-0.06935608387 0.09714606404 0.2327392101 
-0.07048395276 0.09632179141 0.2306687236 
-0.07161720097 0.09549352527 0.2285882235 
-0.0727558881 0.09466135502 0.226497829 
-0.07390710711 0.09384009242 0.2244247794 
-0.07507707179 0.09304341674 0.2223941088 
-0.07623353601 0.0922023654 0.2202793956 
-0.07739517093 0.09135645628 0.2181529999 
-0.07856239378 0.09050634503 0.2160161138 
-0.07973529398 0.08965212107 0.2138688564 
-0.08087009192 0.08869561553 0.2115303874 
-0.08194884658 0.08759301901 0.2089192867 
-0.08303822577 0.08649247885 0.2063084841 
-0.08419917524 0.08553475142 0.2039578557 
-0.0852829963 0.08437725902 0.2012346983 
-0.08636519313 0.08319178224 0.1984559894 
-0.08748963475 0.08208203316 0.1958137155 
-0.0886348784 0.08099868894 0.1932168007 
-0.08975143731 0.07982227206 0.1904435754 
-0.09087529778 0.07863816619 0.1876522899 
-0.09197600186 0.0773704052 0.1847015619 
-0.09307038784 0.07605853677 0.1816646457 
-0.09417264163 0.074737221 0.1786057949 
-0.09537951648 0.07365500927 0.1759884357 
-0.09648814797 0.07229220867 0.1728439927 
-0.09752754867 0.07071530819 0.1692953706 
-0.09862853587 0.06926545501 0.1659790277 
-0.09969817102 0.06769639254 0.1624349952 
-0.100800842 0.06617975235 0.1589839458 
-0.1019124985 0.064650774 0.1555048823 
-0.10302113 0.06307560205 0.1519342065 
-0.1040621996 0.06126967072 0.1479251981 
-0.1051104218 0.05943858624 0.1438631415 
-0.1061687917 0.05758985877 0.1397618055 
-0.1072373688 0.05572316051 0.1356206536 
-0.1083163917 0.05383831263 0.1314393282 
-0.1093349755 0.05172070861 0.1268129349 
-0.1103327572 0.04948198795 0.121951282 
-0.1113506407 0.04724439979 0.1170842648 
-0.1124074459 0.0450668633 0.1123235822 
-0.1134266853 0.0427081883 0.1072131395 
-0.1143668592 0.04002612829 0.101482749 
-0.1153197438 0.03730788827 0.095674932 
-0.1162389964 0.03439763188 0.08949416876 
-0.1172139272 0.03158855438 0.08349597454 
-0.1181472689 0.02855154872 0.07705551386 
-0.1190136895 0.02518761158 0.06998366117 
-0.1198564097 0.02163463831 0.06254088879 
-0.1206323355 0.01772841811 0.05441379547 
-0.1212764531 0.01321440935 0.04511523247 
-0.1218089387 0.008137464523 0.03472793102 
-0.1219153479 0.001282185316 0.02092808485 
0.07933972776 0.08459219337 0.2585378885 
0.07413892448 0.08867797256 0.2648651004 
0.06988047063 0.09173324704 0.2694602609 
0.06670232117 0.09358468652 0.2720244527 
0.06378136575 0.09515953064 0.274125278 
0.06117527187 0.09638687968 0.2756409645 
0.05872546136 0.09744545817 0.2768737078 
0.05627916753 0.098510921 0.2781216502 
0.05389277637 0.09951722622 0.2792723179 
0.05172841251 0.1002722979 0.2799978852 
0.04961799085 0.1009713709 0.2806303501 
0.04753787816 0.1016417146 0.2812160254 
0.04548113048 0.1022912264 0.2817682028 
0.04343213141 0.1029382944 0.2823184133 
0.04140098393 0.1035707593 0.2828456163 
0.03938029706 0.1041973233 0.2833648324 
0.03740371764 0.1047767401 0.2838051319 
0.03546394408 0.1053171456 0.2841803432 
0.03355444968 0.10582605 0.2845031023 
0.03165067732 0.1063334346 0.2848249674 
0.0297755748 0.1068105996 0.2850963473 
0.02794362605 0.1072387993 0.2852848768 
0.02614729106 0.107626766 0.2854052782 
0.02436466515 0.1080016792 0.2855045199 
0.02258984745 0.1083708405 0.2855949402 
0.02081893384 0.1087391973 0.2856851816 
0.01905198395 0.1091066897 0.2857751846 
0.01728884876 0.1094734371 0.2858650088 
0.01552961767 0.1098393202 0.2859545946 
0.01382417977 0.1101386547 0.2859297395 
0.0121268779 0.1104307473 0.2858932614 
0.0104624331 0.1106825173 0.2857874632 
0.008807331324 0.1109247506 0.2856659293 
0.007154613733 0.111166656 0.2855445743 
0.005504369736 0.1114081442 0.2854233384 
0.003869175911 0.1116320491 0.2852721214 
0.002279236913 0.1117964685 0.28501755 
0.000693872571 0.1119566262 0.284756124 
-0.0008899271488 0.1121165752 0.2844948173 
-0.002472192049 0.1122764051 0.2842338681 
-0.004064068198 0.1124517322 0.2840005159 
-0.00566354394 0.1126399934 0.2837905884 
-0.007261201739 0.1128280759 0.2835809588 
-0.008832931519 0.112981379 0.2833107114 
-0.01032198966 0.1130172908 0.282834053 
-0.01181602478 0.1130609214 0.2823711038 
-0.01331230998 0.1131083965 0.2819150686 
-0.01480814815 0.1131558418 0.2814591527 
-0.01630358398 0.1132033169 0.2810034752 
-0.01774775982 0.1131749749 0.2804136872 
-0.01918251812 0.113132149 0.2797981501 
-0.02061772346 0.1130894125 0.2791825533 
-0.02205327153 0.1130465865 0.2785667777 
-0.02348916233 0.1130037308 0.2779507041 
-0.02492545545 0.1129609346 0.2773346901 
-0.02632856369 0.1128659546 0.2766255736 
-0.0277287364 0.1127651036 0.2759056687 
-0.0290980041 0.1126142144 0.2750961781 
-0.0304685235 0.1124631763 0.2742859721 
-0.03184036911 0.1123120487 0.2734751105 
-0.0332134217 0.1121607423 0.2726633549 
-0.03455483913 0.1119560599 0.2717556357 
-0.03584705293 0.1116681397 0.2706980109 
-0.03711217642 0.1113314629 0.269552052 
-0.03837989271 0.1109941006 0.2684037089 
-0.03963805735 0.1106358767 0.2672168016 
-0.04089426994 0.1102690399 0.2660132647 
-0.04215328395 0.1099013686 0.2648069859 
-0.04341509938 0.1095329225 0.2635980844 
-0.04467967153 0.1091636419 0.2623865008 
-0.04596194625 0.1088193357 0.2612187862 
-0.04717352986 0.1083462834 0.2598173618 
-0.04838855565 0.1078718901 0.2584120035 
-0.04960797727 0.1073978841 0.2570056915 
-0.05087845027 0.1070075631 0.2557494044 
-0.05211335421 0.1065469086 0.2543644309 
-0.05333355069 0.1060521603 0.252916038 
-0.05455733836 0.1055559218 0.251463294 
-0.0557847172 0.1050581932 0.2500062585 
-0.0570127219 0.1045533717 0.2485346198 
-0.05822597444 0.1040125489 0.2469957471 
-0.05941112339 0.1034094095 0.245341599 
-0.06054979563 0.1027074456 0.2435050607 
-0.06168888509 0.1019942462 0.2416456938 
-0.06283275783 0.1012780964 0.2397786975 
-0.06398819387 0.1005720794 0.2379277945 
-0.06515175104 0.09986975789 0.2360814214 
-0.06632009149 0.09916451573 0.2342272997 
-0.06749324501 0.09845641255 0.2323657274 
-0.06863953173 0.09768104553 0.2303782701 
-0.0697684139 0.09685599804 0.2282970548 
-0.07090273499 0.09602701664 0.2262057662 
-0.07204917073 0.09520801902 0.2241301537 
-0.07321494818 0.09441435337 0.2220986485 
-0.07438603044 0.09361705184 0.2200577855 
-0.07554382086 0.0927760303 0.2179335952 
-0.07670649886 0.09192943573 0.2157963514 
-0.0778747946 0.09107872844 0.2136487961 
-0.07904499769 0.09021550417 0.2114752531 
-0.08018523455 0.08926850557 0.2091436982 
-0.08126442134 0.08816510439 0.2065190077 
-0.0823905021 0.08714610338 0.2040473223 
-0.08355218172 0.08618804812 0.2016855478 
-0.08463449776 0.08502614498 0.198941648 
-0.08573888242 0.08389174938 0.1962451339 
-0.08690312505 0.08287537098 0.1937646866 
-0.08801403642 0.08170962334 0.1910025477 
-0.08913083375 0.08053314686 0.1882165074 
-0.09025494754 0.07934898138 0.1854122877 
-0.09136000276 0.07809171081 0.1824675202 
-0.09245438874 0.07677984238 0.1794165373 
-0.09360475838 0.07558009028 0.1765711904 
-0.09483203292 0.07454973459 0.1740393639 
-0.09591300786 0.07311734557 0.1707500815 
-0.09697365761 0.07159847021 0.167293787 
-0.09806089103 0.07011434436 0.1638978124 
-0.09912891686 0.06854337454 0.160333693 
-0.1002312303 0.06702759862 0.1568683386 
-0.1013424993 0.06549945474 0.1533746719 
-0.1024628133 0.06395879388 0.1498524547 
-0.1035361737 0.06224754453 0.1460032463 
-0.1045833677 0.0604185462 0.1419261098 
-0.1056406945 0.0585718751 0.1378095746 
-0.1067082584 0.0567073524 0.1336531639 
-0.107786268 0.05482462049 0.1294562817 
-0.1088418514 0.05282455683 0.125030756 
-0.1098379493 0.05058953166 0.1201531887 
-0.1108790934 0.04843232036 0.1154158711 
-0.111934334 0.04625925422 0.1106414199 
-0.1129728854 0.043972224 0.1056430936 
-0.1139108017 0.04129651189 0.09989762306 
-0.1148806736 0.03864750266 0.09419411421 
-0.1158171967 0.03581041098 0.08812344074 
-0.1167929545 0.03302040696 0.08213335276 
-0.1177664101 0.03013825417 0.07595807314 
-0.1186447442 0.02683824301 0.06897473335 
-0.1194843426 0.02329927683 0.06152331829 
-0.1203166917 0.01962211728 0.05379581451 
-0.1209683269 0.01517099142 0.04457306862 
-0.1215649098 0.01037108898 0.03466677666 
-0.1218513325 0.0042488873 0.02220636606 
0.07800020278 0.08609360456 0.2572199106 
0.07370345294 0.08915686607 0.261850059 
0.06910662353 0.0925925076 0.2671251297 
0.06579603255 0.09459272027 0.2699623108 
0.06285478175 0.09618905187 0.2721163034 
0.06006409228 0.09762790799 0.2740063071 
0.05756346881 0.09874492884 0.2753502727 
0.05516038835 0.09975975752 0.276522994 
0.05279533565 0.1007405519 0.2776406407 
0.05063761771 0.1014871597 0.2783596516 
0.0484892875 0.1022305191 0.2790755033 
0.04636473954 0.1029534638 0.2797587514 
0.04431061447 0.1035997272 0.2803122997 
0.04227654636 0.1042287946 0.2808384895 
0.04024998844 0.1048555672 0.2813626528 
0.0382309407 0.1054799557 0.2818848491 
0.03625743091 0.1060554087 0.2823245525 
0.03434331715 0.1065641344 0.2826507092 
0.03247715533 0.1070190668 0.2828854918 
0.03062473238 0.1074619293 0.2831007838 
0.028777197 0.1079035997 0.2833155394 
0.02693460882 0.1083440185 0.2835295796 
0.02509726584 0.1087827981 0.2837421894 
0.0233053118 0.1091687381 0.2838643193 
0.02151744068 0.1095538735 0.28398633 
0.01973380148 0.1099379957 0.2841078639 
0.01795421541 0.1103212833 0.284229219 
0.01617868245 0.1107037365 0.2843503356 
0.01440729201 0.1110852361 0.284471035 
0.0127350837 0.1113405228 0.2843723297 
0.01108701527 0.1115668714 0.2842236757 
0.00944121182 0.1117928326 0.2840752006 
0.00779761374 0.1120185256 0.2839269638 
0.006156265736 0.1122439206 0.2837789059 
0.004528328776 0.1124538779 0.2836045027 
0.002922609448 0.1126359701 0.2833818197 
0.001318693161 0.1128178537 0.2831593156 
-0.0002677291632 0.1129778028 0.2828987241 
-0.00185251236 0.113137424 0.2826381922 
-0.003442749381 0.1133067012 0.2823951244 
-0.005038917065 0.113486439 0.2821711302 
-0.006586074829 0.1135989726 0.2818288207 
-0.008114695549 0.1136865318 0.2814427614 
-0.009588912129 0.1136970222 0.2809203863 
-0.0110630393 0.1137075424 0.2803981304 
-0.01256227493 0.1137547493 0.2799409628 
-0.01406127214 0.1138022244 0.2794844508 
-0.01555630565 0.1138444543 0.2790187597 
-0.01701579988 0.1138345599 0.278460443 
-0.01847539842 0.1138246953 0.2779021859 
-0.01992429793 0.1137985885 0.2773148417 
-0.021362409 0.1137557924 0.2766976953 
-0.02277815342 0.1136783659 0.2760184407 
-0.0241818279 0.1135813892 0.2753040195 
-0.02558633685 0.113484323 0.2745891213 
-0.02699169517 0.1133872271 0.2738738656 
-0.02837397158 0.1132526696 0.2730911374 
-0.02974702418 0.1131016612 0.2722783685 
-0.03106553853 0.1128619015 0.2713056803 
-0.03237479925 0.112603873 0.2702993751 
-0.03368608654 0.1123454571 0.2692915201 
-0.03498594463 0.1120647788 0.2682426572 
-0.03625375032 0.1117275953 0.2670910358 
-0.03751702607 0.1113779843 0.2659158707 
-0.03877308965 0.1110112965 0.2647086382 
-0.04003195465 0.1106438041 0.2634988427 
-0.04129959643 0.1102855504 0.2623044848 
-0.04263415933 0.1100353897 0.2613048553 
-0.04389762878 0.10965994 0.2600771785 
-0.0451066941 0.1091850698 0.2586678267 
-0.0463206023 0.1087111831 0.2572587132 
-0.04756715894 0.1082870364 0.2559384704 
-0.04883696139 0.107897222 0.2546793222 
-0.05010260642 0.1074938774 0.2533941865 
-0.05132129788 0.1069999337 0.2519426942 
-0.05254355073 0.1065044999 0.2504867911 
-0.05376942456 0.1060076058 0.2490265965 
-0.05499891937 0.1055092812 0.2475621104 
-0.05623206496 0.1050094366 0.2460933328 
-0.05746376514 0.1044986248 0.2446027398 
-0.05862943828 0.1038550138 0.2428670526 
-0.05976517498 0.1031437814 0.2410052419 
-0.06090573967 0.1024296284 0.2391356826 
-0.06205813587 0.1017260551 0.2372832894 
-0.06321844459 0.101025641 0.2354343534 
-0.06438355148 0.1003223956 0.2335779667 
-0.06555342674 0.09961616993 0.2317137122 
-0.06672815979 0.09890711308 0.2298419476 
-0.06790775061 0.09819507599 0.2279623151 
-0.06904934347 0.09739285707 0.225913763 
-0.07019099593 0.09657603502 0.2238354683 
-0.07135260105 0.09578549862 0.2218032479 
-0.07251948118 0.09499126673 0.2197615504 
-0.07369174063 0.09419345856 0.2177106142 
-0.07485082746 0.09335234761 0.2155767679 
-0.07601454854 0.09250515699 0.2134287357 
-0.07718393207 0.09165388346 0.2112704515 
-0.07833814621 0.09075260162 0.2090162039 
-0.0794916749 0.08983212709 0.2067233324 
-0.080583781 0.08875575662 0.2041367888 
-0.0817399621 0.08780255914 0.2017765641 
-0.08290240169 0.08684423566 0.199403584 
-0.08399175107 0.08569768071 0.1966757178 
-0.08514985442 0.08468750119 0.1941990852 
-0.08628086746 0.08359235525 0.1915601492 
-0.08739066124 0.08242347836 0.1887794137 
-0.08850768209 0.08124694228 0.1859804392 
-0.0896320492 0.0800627172 0.1831632853 
-0.09074151516 0.07881596684 0.1802247167 
-0.09183588624 0.07750406861 0.1771594882 
-0.09305517375 0.07647675276 0.1746255755 
-0.0941696614 0.07515975833 0.1715425849 
-0.09528893232 0.07382494211 0.1684216857 
-0.09642058611 0.07249134779 0.1652987003 
-0.09749126434 0.07096612453 0.161809504 
-0.09855771065 0.06939336658 0.1582253575 
-0.09965959191 0.06787839532 0.1547454 
-0.1007704586 0.0663510263 0.1512369514 
-0.101890415 0.06481122971 0.1477000117 
-0.1030082256 0.06322705746 0.1440737247 
-0.1040547937 0.06140139699 0.1399838328 
-0.1051110774 0.05955687165 0.1358520389 
-0.1061776131 0.05769440532 0.131680131 
-0.1072545499 0.05581369996 0.1274673939 
-0.1083420664 0.05391463637 0.1232133508 
-0.10936445 0.05176764727 0.1184805036 
-0.1104066074 0.04962268472 0.1137443781 
-0.1114602536 0.04745396972 0.1089559197 
-0.1125183553 0.04523852468 0.1040709615 
-0.1134539694 0.04256907105 0.09831011295 
-0.114442654 0.03999435902 0.09272181988 
-0.1153949574 0.03722479939 0.08675163984 
-0.116374217 0.03446272016 0.08078670502 
-0.1173854321 0.03172555566 0.07486057281 
-0.118275784 0.02848911285 0.06796610355 
-0.1191172302 0.02498143911 0.06053936481 
-0.120001331 0.02151405811 0.05317860842 
-0.120660536 0.01712539792 0.04403167963 
-0.1212917268 0.01249089837 0.03439635038 
-0.1216693968 0.006759315729 0.02262866497 
0.07801352441 0.08607169986 0.2532953024 
0.07302413881 0.08991160989 0.2592875361 
0.06869880855 0.0930352807 0.2640637755 
0.06513650715 0.09531849623 0.2674071789 
0.06192620099 0.09722071886 0.2701032162 
0.05917651951 0.09861057997 0.2719240189 
0.0565340966 0.0998903513 0.2735599279 
0.05413927138 0.1008944809 0.2747248411 
0.05177272856 0.1018759608 0.2758540511 
0.04961179197 0.1026252806 0.2765855193 
0.04749380052 0.1033316851 0.2772452831 
0.04538460076 0.1040350795 0.2779021263 
0.04329933226 0.104717344 0.278524816 
0.04124112427 0.1053743958 0.2791059613 
0.03919093311 0.1060288548 0.2796847224 
0.03714860976 0.1066808701 0.280261457 
0.03519694507 0.1072289646 0.2806596756 
0.03333471715 0.1076730192 0.2808786631 
0.03147734702 0.1081159115 0.2810969949 
0.02962489426 0.1085576415 0.2813148499 
0.02777732909 0.1089982092 0.2815321088 
0.0259347111 0.1094375253 0.2817487121 
0.02409683168 0.1098757684 0.2819647789 
0.02226383984 0.1103128195 0.2821802497 
0.0204667598 0.1107088625 0.2823253274 
0.01868335903 0.1110919118 0.2824488878 
0.01694719493 0.111418128 0.282474041 
0.01525177062 0.1116950512 0.2824136019 
0.01354889572 0.111984998 0.2823770642 
0.01184900105 0.1122744679 0.2823405266 
0.01015473902 0.1125598848 0.2822979093 
0.008507877588 0.1127854288 0.2821506262 
0.006863310933 0.1130106747 0.2820035219 
0.005228221416 0.1132258177 0.2818393707 
0.003619447351 0.1134077907 0.2816172242 
0.002012476325 0.1135894954 0.2813952565 
0.0004072189331 0.1137711406 0.2811737061 
-0.001178607345 0.1139281392 0.2809091806 
-0.002763301134 0.1140854955 0.2806456685 
-0.0043297261 0.1142192185 0.2803407311 
-0.005879864097 0.1143316925 0.2799984813 
-0.007375970483 0.1143689156 0.2795226574 
-0.008853048086 0.114379406 0.2789993286 
-0.01033006608 0.1143899262 0.278476119 
-0.01180924475 0.1144037843 0.2779588699 
-0.01331143081 0.1144512892 0.2775017023 
-0.01479998231 0.1144794226 0.2770101428 
-0.01626253128 0.1144695878 0.2764506936 
-0.01772513986 0.1144597232 0.2758911848 
-0.01916000247 0.114408195 0.2752569318 
-0.02057015896 0.1143187881 0.2745545506 
-0.02198058367 0.1142286062 0.273850441 
-0.02339175344 0.114138335 0.2731459141 
-0.02480371296 0.114048034 0.2724409699 
-0.02621011436 0.1139478087 0.271717906 
-0.02755431831 0.1137494147 0.2708175182 
-0.02887567878 0.1135123968 0.2698466778 
-0.03018587828 0.1132543385 0.2688372135 
-0.03149813414 0.1129958928 0.2678260803 
-0.03281246126 0.1127370894 0.2668135166 
-0.03412003815 0.1124636829 0.2657735944 
-0.0353885144 0.1121226847 0.2646102309 
-0.03664447367 0.1117561758 0.2633995414 
-0.03791825473 0.1114137173 0.2622312307 
-0.03925104439 0.1111642122 0.2612307668 
-0.04058587551 0.1109143496 0.2602288723 
-0.04184621572 0.1105350554 0.258990407 
-0.04303376377 0.1100263298 0.2575147748 
-0.04425470531 0.1095669866 0.2561275959 
-0.04552088678 0.1091785729 0.2548684478 
-0.04679001868 0.1087892652 0.2536063194 
-0.04806208611 0.1083990335 0.2523412704 
-0.04930433631 0.1079499424 0.2509670854 
-0.05052505434 0.1074553132 0.2495080233 
-0.05174940825 0.1069593132 0.2480447292 
-0.05297787488 0.1064626873 0.246578753 
-0.05422157049 0.1059857905 0.2451472878 
-0.05545069277 0.1054741442 0.2436504364 
-0.05664625764 0.1048918366 0.2420217991 
-0.0578391552 0.1042947471 0.2403640151 
-0.05897632241 0.1035825014 0.2384918332 
-0.06012573838 0.1028814018 0.2366378307 
-0.06128278375 0.1021829247 0.2347865105 
-0.06244462729 0.1014816165 0.2329275608 
-0.06361122429 0.1007773876 0.2310609221 
-0.06478269398 0.1000702977 0.2291865945 
-0.06595897675 0.09936022758 0.2273044586 
-0.06714212894 0.09865114093 0.2254217863 
-0.06833164394 0.09794214368 0.2235370278 
-0.06949007511 0.09715670347 0.2215077281 
-0.07065276802 0.09636560082 0.2194653153 
-0.07182079554 0.09557086229 0.2174134851 
-0.07299421728 0.09477254748 0.2153523564 
-0.0741545856 0.09393137693 0.213208735 
-0.07531936467 0.09308362007 0.211049974 
-0.07647924125 0.0922088623 0.208837986 
-0.07762779295 0.09129229188 0.2065448761 
-0.07878233492 0.09037092328 0.2042397857 
-0.07992973924 0.08941528201 0.2018674016 
-0.08108663559 0.08846181631 0.1994959712 
-0.08224982023 0.08750322461 0.1971117258 
-0.08337338269 0.0864341259 0.1945167184 
-0.08450181782 0.08535414934 0.1918977499 
-0.08563138545 0.08425426483 0.1892376542 
-0.08675645292 0.08312040567 0.1865100265 
-0.08788204193 0.08196356893 0.183735311 
-0.08900663257 0.08077928424 0.1809049845 
-0.09012055397 0.07954308391 0.1779726744 
-0.09128198028 0.07839682698 0.1752063632 
-0.09238539636 0.07708016038 0.1721137762 
-0.09352627397 0.07582825422 0.169139564 
-0.09469659626 0.07462307811 0.1662496924 
-0.09586577117 0.07338696718 0.1632971764 
-0.09691974521 0.07182079554 0.1597140431 
-0.09798455238 0.07024624944 0.1561096311 
-0.09908601642 0.06873211265 0.1526150703 
-0.1001964658 0.06720554829 0.1490917802 
-0.1013160199 0.06566655636 0.1455398798 
-0.1024464071 0.06411933899 0.1419670582 
-0.1035200059 0.06237366796 0.1380105019 
-0.1045742333 0.06052821875 0.1338575482 
-0.1056387126 0.05866479874 0.1296641231 
-0.1067136079 0.0567830801 0.1254295111 
-0.107806474 0.05490472913 0.1211951375 
-0.1088834554 0.0529282093 0.1167665124 
-0.1099331975 0.05081522465 0.112069428 
-0.110985294 0.0486510396 0.1072671413 
-0.1120490134 0.04646277428 0.1024113894 
-0.1129964143 0.04384365678 0.09671980143 
-0.1140041128 0.04134300351 0.09124755859 
-0.1149723083 0.03864052892 0.08537817001 
-0.1159551367 0.03590634465 0.07943880558 
-0.1169645563 0.03317937255 0.07350432873 
-0.1179068089 0.03013986349 0.06695711613 
-0.1187887043 0.0267970264 0.05981343985 
-0.1196278632 0.02319842577 0.05216389894 
-0.120353125 0.01907739043 0.04349070787 
-0.1210190654 0.01460668445 0.03412616253 
-0.1214402914 0.009084165096 0.02270650864 
0.078411147 0.08561712503 0.2485932112 
0.07240851223 0.09059429169 0.2565861344 
0.06829540431 0.09347295761 0.2609724998 
0.06473194063 0.09575271606 0.264333427 
0.06147448719 0.09770441055 0.2671343684 
0.05855150521 0.09928995371 0.2693078518 
0.05584077537 0.1006455123 0.2710880041 
0.05341504514 0.1016826034 0.2723202109 
0.05111093819 0.1025879383 0.273326993 
0.0488576144 0.1034429371 0.2742493749 
0.04661552608 0.104293704 0.2751671672 
0.04449830949 0.105004698 0.2758443952 
0.04239724576 0.1057040393 0.2765036225 
0.04033793509 0.1063606143 0.2770906091 
0.03828714788 0.1070139408 0.2776741385 
0.03628502786 0.1076151729 0.2781686783 
0.03429763019 0.1082049906 0.2786453366 
0.03233353794 0.1087726355 0.2790849805 
0.0304761678 0.1092143357 0.2793058753 
0.02862368524 0.1096549332 0.2795261741 
0.02677612007 0.1100943387 0.2797458768 
0.024935022 0.1105305552 0.2799614668 
0.02311398089 0.1109462976 0.2801424265 
0.02129746974 0.1113610566 0.2803230882 
0.01951859891 0.1117323637 0.2804284692 
0.01781989634 0.1120046079 0.2803602815 
0.01611314714 0.112290442 0.2803170085 
0.01440577209 0.1125804782 0.2802821398 
0.01270134747 0.1128700674 0.2802473903 
0.01099991798 0.1131591201 0.2802127004 
0.009301424026 0.113447696 0.2801780701 
0.007605955005 0.1137357354 0.2801434994 
0.005930498242 0.1140003502 0.2800682783 
0.004359409213 0.1141270995 0.2797487974 
0.002796947956 0.1142436564 0.2794116139 
0.001235604286 0.1143601537 0.2790746689 
-0.0003668069839 0.1145346463 0.2788415551 
-0.001972854137 0.1147162914 0.2786217332 
-0.00357709825 0.1148976982 0.2784021497 
-0.005152672529 0.1150411963 0.2781153917 
-0.006634265184 0.1150538623 0.2775949836 
-0.008114278316 0.1150644422 0.2770708203 
-0.009594172239 0.1150749624 0.2765466571 
-0.01107394695 0.1150854826 0.2760224342 
-0.01255843043 0.1151029468 0.275510788 
-0.01404048502 0.1151170731 0.2749932408 
-0.01547347009 0.1150594354 0.2743465304 
-0.0168864578 0.1149714589 0.2736450434 
-0.01830007136 0.1148832142 0.2729427218 
-0.01971316338 0.1147930026 0.2722366452 
-0.02112697065 0.1147026718 0.2715300322 
-0.02252525091 0.1145875752 0.2707782984 
-0.02388416231 0.1144106984 0.2699143887 
-0.02524453402 0.114233613 0.2690495849 
-0.02658860385 0.1140288711 0.2681339979 
-0.02792301774 0.1138061583 0.2671852112 
-0.02925924957 0.1135831475 0.2662351131 
-0.03059729934 0.1133598387 0.2652837038 
-0.03193381429 0.1131309271 0.2643213868 
-0.03324922919 0.1128648221 0.2632905841 
-0.03453272581 0.1125432551 0.2621577978 
-0.03586378694 0.1122944057 0.2611566186 
-0.03718943894 0.1120330691 0.2601318359 
-0.03850311041 0.1117480695 0.2590628862 
-0.03978899121 0.1114124656 0.2579004169 
-0.04095461965 0.1108700931 0.2563583851 
-0.04220359027 0.1104604006 0.2550575733 
-0.04346908629 0.110072583 0.2537955642 
-0.04473751783 0.1096837819 0.2525304556 
-0.04600891471 0.1092940569 0.2512624264 
-0.04728257656 0.1089021862 0.2499890924 
-0.04850174487 0.1084084213 0.2485269308 
-0.04972665012 0.1079169214 0.2470672727 
-0.05096533895 0.1074422002 0.24563694 
-0.05220755935 0.1069660783 0.2442024946 
-0.05343301594 0.1064518392 0.2426959872 
-0.05462644994 0.1058705747 0.2410638332 
-0.05582401156 0.1052872539 0.2394260168 
-0.05702574551 0.1047019362 0.2377825379 
-0.0581959486 0.1040476859 0.2360092998 
-0.05935585499 0.1033627987 0.2341769934 
-0.06052045524 0.1026751399 0.2323374152 
-0.06168979406 0.1019847095 0.2304902673 
-0.06286385655 0.1012914181 0.2286356091 
-0.06404273212 0.1005953252 0.2267733812 
-0.06522642076 0.09989643097 0.2249035835 
-0.06641496718 0.09919464588 0.2230260968 
-0.06760382652 0.09848088026 0.2211239934 
-0.06878469884 0.09773781896 0.2191646695 
-0.06994964182 0.09694853425 0.2171164751 
-0.07111881673 0.09615325928 0.2150544524 
-0.07229334116 0.09535434842 0.2129829526 
-0.07345500588 0.09451311827 0.2108294964 
-0.07462082803 0.09366473556 0.2086597681 
-0.07576434314 0.09275209904 0.206366539 
-0.07691389322 0.09183472395 0.2040613294 
-0.07805897295 0.0908896029 0.2017009258 
-0.07920852304 0.08993548155 0.1993203759 
-0.08038263023 0.08901715279 0.1970041394 
-0.08156207204 0.08809217811 0.1946723461 
-0.08271506429 0.08708807826 0.1921880245 
-0.08384402096 0.08600777388 0.1895563006 
-0.08497598767 0.08491200209 0.1868917346 
-0.08610147238 0.0837777257 0.1841506958 
-0.08723406494 0.08263623714 0.1813920736 
-0.08837391436 0.08148747683 0.1786160469 
-0.08950980008 0.08030411601 0.175770402 
-0.09064571559 0.07909464836 0.1728712916 
-0.09180089831 0.07790607214 0.1700078249 
-0.09296365082 0.07670968771 0.1671256423 
-0.09413087368 0.07549735904 0.1642090678 
-0.09529577196 0.07425108552 0.1612237096 
-0.09634621441 0.07267847657 0.1576113701 
-0.09740936756 0.07110208273 0.1539866328 
-0.09851039946 0.06958881021 0.1504773498 
-0.09962044656 0.06806313992 0.1469392776 
-0.1007446796 0.06653884053 0.1433988214 
-0.1018743217 0.06499159336 0.1398093104 
-0.1029752344 0.06332537532 0.1359864473 
-0.1040284038 0.06148171425 0.1318172216 
-0.1050918549 0.05962008238 0.1276074052 
-0.1061657518 0.05774015188 0.1233562231 
-0.1072787195 0.05592551827 0.1192245483 
-0.1083618402 0.05397334695 0.1148217916 
-0.1094301939 0.05192360282 0.1102243662 
-0.110509336 0.04985043406 0.1055750251 
-0.1115714759 0.0476667583 0.1007052064 
-0.112559244 0.04518705606 0.09525591135 
-0.1135649234 0.04269340634 0.08977127075 
-0.1145491898 0.04005780816 0.08400344849 
-0.1155356243 0.03735136986 0.07808971405 
-0.1165427193 0.03463289142 0.07214349508 
-0.1175378039 0.03179082274 0.06594836712 
-0.1183896959 0.02836829424 0.0586156249 
-0.1192483902 0.02486199141 0.05110865831 
-0.1200707778 0.02111500502 0.0431214571 
-0.1207468733 0.01671868563 0.03385663033 
-0.1212158576 0.01141798496 0.02281355858 
0.0779709667 0.08610576391 0.245485127 
0.07217778265 0.09084120393 0.2531120181 
0.06791721284 0.09388178587 0.257809639 
0.06433160603 0.09618192911 0.2612296343 
0.06117086112 0.09801760316 0.263848722 
0.05817778409 0.0996786952 0.2661696076 
0.05521337688 0.1013238728 0.26846838 
0.05271391571 0.1024435163 0.269855082 
0.05044646561 0.103302747 0.2707903385 
0.04819042981 0.1041576266 0.2717208862 
0.04594568908 0.1050082147 0.2726467848 
0.04371227324 0.1058545411 0.2735679746 
0.04150827229 0.106674701 0.2744461298 
0.03943257034 0.1073490679 0.2750710845 
0.03742106259 0.1079530418 0.2755745053 
0.03542561829 0.1085440516 0.2760571241 
0.03346084058 0.1091040373 0.2764870524 
0.0315027386 0.1096619666 0.2769152522 
0.02960367501 0.1101530194 0.2772272825 
0.02773140371 0.1106162071 0.2774918079 
0.0258794874 0.1110590696 0.2777219415 
0.02405272424 0.1114752591 0.2779062986 
0.02223064005 0.111890316 0.2780901194 
0.02041311562 0.1123043597 0.2782734632 
0.01869337261 0.1125977337 0.2782441378 
0.01697836816 0.1128884554 0.2782109976 
0.01526637375 0.1131786704 0.2781780362 
0.01356096566 0.1134636998 0.2781367302 
0.01187111437 0.1137316823 0.2780660391 
0.0101840198 0.1139991879 0.2779954076 
0.008499711752 0.1142662168 0.2779247761 
0.006818071008 0.1145329475 0.2778545618 
0.005229398608 0.1146778464 0.2775673866 
0.003655806184 0.1148041189 0.2772474885 
0.002042382956 0.1149862111 0.2770278454 
0.0004498958588 0.1151418388 0.2767614126 
-0.001096829772 0.115236342 0.2763858438 
-0.002642661333 0.1153307855 0.2760105133 
-0.004187598825 0.1154251695 0.2756353617 
-0.005702778697 0.1154789925 0.275187552 
-0.007207661867 0.1155189276 0.2747148871 
-0.008712172508 0.1155588329 0.2742423415 
-0.01021629572 0.1155987382 0.2737698555 
-0.01170448959 0.1156162024 0.2732570767 
-0.01316465437 0.1155932248 0.2726712227 
-0.01460248232 0.1155373752 0.272025764 
-0.01601888239 0.1154493093 0.2713218331 
-0.01743522286 0.1153599322 0.2706152201 
-0.01882506907 0.1152299047 0.2698346376 
-0.02018481493 0.1150530279 0.2689684629 
-0.0215460211 0.1148759425 0.2681013942 
-0.02290871739 0.1146986783 0.2672333717 
-0.0242729038 0.114521265 0.2663643956 
-0.02561676502 0.114310056 0.2654334307 
-0.02695475519 0.1140868068 0.2644796371 
-0.028294608 0.1138632894 0.2635247111 
-0.02963627875 0.1136394441 0.2625684142 
-0.03097836673 0.1134130955 0.2616068125 
-0.03230899572 0.1131652296 0.2606049776 
-0.03363090754 0.1128996909 0.2595700622 
-0.03495500982 0.1126337945 0.2585335374 
-0.03628118336 0.1123674512 0.2574952841 
-0.03760740161 0.1120972037 0.2564489841 
-0.03888520598 0.1117427051 0.2552468777 
-0.04014702141 0.1113562286 0.2539847493 
-0.04141180217 0.1109688878 0.2527197003 
-0.04267950356 0.1105805933 0.2514516115 
-0.04395022988 0.1101914346 0.2501806021 
-0.04522390664 0.1098013222 0.2489066124 
-0.04647746682 0.1093702912 0.2475555539 
-0.04770468175 0.1088864207 0.2461053729 
-0.04893098772 0.1083932221 0.2446362972 
-0.05016091466 0.1078985631 0.2431628704 
-0.05137932301 0.107375294 0.2416346669 
-0.05255800486 0.1067718863 0.2399559021 
-0.05374094844 0.1061663032 0.2382710576 
-0.05495594442 0.1056094766 0.2366749644 
-0.05619291961 0.105084002 0.2351353765 
-0.05740988255 0.1045123935 0.2335080504 
-0.05859230459 0.1038661003 0.231739521 
-0.05977928638 0.1032174528 0.2299643755 
-0.06095354259 0.1025331914 0.2281205654 
-0.06212900579 0.1018394232 0.2262566686 
-0.06330923736 0.1011426747 0.2243849039 
-0.06449432671 0.1004432142 0.2225057483 
-0.06568428874 0.09974083304 0.2206187248 
-0.06687244773 0.09902223945 0.2186989784 
-0.06805466115 0.09827849269 0.216729641 
-0.06924197078 0.09753152728 0.2147516608 
-0.07041352987 0.09673833847 0.2126842141 
-0.07158924639 0.09593895078 0.2106024623 
-0.07275217772 0.09509763122 0.2084390521 
-0.07390145957 0.09421148896 0.2061882019 
-0.07504370809 0.09329327941 0.2038738132 
-0.07618184388 0.09234830737 0.2015057802 
-0.07734432817 0.09143781662 0.1991999149 
-0.07851611078 0.09052965045 0.1968953609 
-0.07969391346 0.08961674571 0.1945788264 
-0.08086998761 0.08868142962 0.1922166944 
-0.08204340935 0.08772104979 0.1898038983 
-0.08318334818 0.08666419983 0.1872044802 
-0.08431775868 0.08557257056 0.1845354438 
-0.08544361591 0.08443787694 0.1817808151 
-0.0865766257 0.08329600096 0.1790086627 
-0.08771689236 0.0821467638 0.1762187481 
-0.08887641132 0.08101904392 0.1734660268 
-0.09001974761 0.07982695103 0.170586586 
-0.0911705941 0.07862696052 0.1676880717 
-0.09232909977 0.07741895318 0.1647702456 
-0.09349569678 0.0762040019 0.1618350148 
-0.09466484189 0.07496747375 0.158854425 
-0.09576268494 0.07351821661 0.1554616094 
-0.09683224559 0.07196086645 0.1518562436 
-0.09793379903 0.07045099139 0.1483370066 
-0.099051103 0.06894677877 0.1448236704 
-0.1001765281 0.06742787361 0.1412770152 
-0.1012999564 0.06586587429 0.1376422048 
-0.1024288386 0.0642799437 0.1339561939 
-0.10348095 0.06243807077 0.1297706366 
-0.104543373 0.06057828665 0.1255443692 
-0.105623737 0.05872181058 0.1213183999 
-0.1067495197 0.05694913864 0.1172483563 
-0.1078388691 0.0550211966 0.1128717065 
-0.1089058965 0.05297422409 0.1082578301 
-0.1099842787 0.05090549588 0.1035949588 
-0.1110741496 0.04881474376 0.09888237715 
-0.1121216267 0.0465324223 0.09379053116 
-0.1131252199 0.04404556751 0.08829307556 
-0.1141256765 0.04147645831 0.08262723684 
-0.1151157543 0.03879770637 0.07673925161 
-0.1161202565 0.03608676791 0.07077950239 
-0.117131643 0.03331664205 0.06469517946 
-0.1179494485 0.02979984879 0.05714279413 
-0.1188689098 0.02652564645 0.05005317926 
-0.1198060438 0.02320972085 0.04287087917 
-0.1204752028 0.01882666349 0.03358733654 
-0.1209920347 0.01374515891 0.02291995287 
0.07847459614 0.08553159237 0.2405007482 
0.07238991559 0.09058684111 0.2487358451 
0.06757290661 0.09425196052 0.2545568347 
0.06392915547 0.09661340714 0.258108139 
0.0607470423 0.09846878052 0.2607805729 
0.05775733292 0.1001212299 0.2631034255 
0.054850474 0.1016948223 0.2652933002 
0.05220662057 0.1029779315 0.266978085 
0.04986865819 0.1039155722 0.2680594921 
0.04760749638 0.1047726274 0.2690021992 
0.04535780847 0.1056252718 0.269939959 
0.04311938584 0.1064736843 0.270873189 
0.04089219868 0.1073178351 0.2718016505 
0.03870521486 0.108122766 0.2726635933 
0.03665797412 0.1087670326 0.2732441425 
0.03467746079 0.1093370318 0.2736953497 
0.03271074593 0.109896481 0.2741296887 
0.03075186908 0.1104524732 0.2745598555 
0.0288720876 0.1109167039 0.2748289108 
0.02699752152 0.1113796234 0.2750971913 
0.02512814105 0.1118412912 0.2753648162 
0.02326400578 0.1123016477 0.275631547 
0.02142237127 0.1127387881 0.2758585215 
0.0196365267 0.1131097674 0.2759689689 
0.01792596281 0.1133884192 0.2759157419 
0.01621831954 0.1136666238 0.2758626938 
0.01451356709 0.1139443517 0.2758096457 
0.01281167567 0.1142216325 0.2757567763 
0.01111260056 0.1144984365 0.2757040262 
0.00941747427 0.1147734225 0.2756488919 
0.00773088634 0.1150403321 0.2755801678 
0.006102904677 0.1152320802 0.275377214 
0.004548713565 0.1153268814 0.2750005722 
0.002995356917 0.1154217124 0.2746242881 
0.001442983747 0.1155163944 0.2742480636 
-0.0001085996628 0.115611136 0.2738721967 
-0.001659229398 0.1157057285 0.2734965086 
-0.003208935261 0.1158002913 0.2731209993 
-0.004746586084 0.115879178 0.2727174759 
-0.006255820394 0.115919143 0.2722436786 
-0.007764741778 0.1159591377 0.2717700601 
-0.009241059422 0.1159532666 0.2712135315 
-0.01070545614 0.1159302592 0.2706257105 
-0.01217010617 0.1159072518 0.2700379491 
-0.01362790167 0.115874052 0.2694314122 
-0.01506358385 0.1158080697 0.2687652111 
-0.01646097004 0.1156848371 0.2679944634 
-0.01783201098 0.1155209541 0.2671490908 
-0.01919554174 0.1153436899 0.2662788033 
-0.02056056261 0.1151662469 0.2654075027 
-0.0219270587 0.1149885654 0.2645353079 
-0.0232950449 0.1148107052 0.2636620998 
-0.0246386677 0.1145930588 0.2627154589 
-0.02598029375 0.114369303 0.2617568374 
-0.02732272446 0.1141436398 0.2607939839 
-0.02866362035 0.113912344 0.259820044 
-0.03000305593 0.1136755049 0.2588350773 
-0.03132642806 0.1134097278 0.2577961087 
-0.03265199065 0.1131435931 0.2567555308 
-0.03397968411 0.1128769815 0.2557133436 
-0.03532709181 0.1126385331 0.2547220588 
-0.03667977452 0.1124051213 0.253739357 
-0.03799198568 0.1121015549 0.2526262403 
-0.03928259015 0.1117575765 0.2514372468 
-0.04054963589 0.1113690734 0.2501645684 
-0.04181964695 0.1109796166 0.2488889098 
-0.04309266806 0.1105892658 0.247610271 
-0.04436610639 0.1101935208 0.2463203669 
-0.04558762908 0.1097022295 0.2448514104 
-0.04681277275 0.1092094183 0.2433781028 
-0.04804475605 0.1087207794 0.2419108152 
-0.04927897453 0.108228296 0.2404347062 
-0.05045567453 0.1076254845 0.2387512922 
-0.0516564101 0.1070560515 0.2371280193 
-0.05289033055 0.1065372527 0.2355975509 
-0.054128021 0.1060167849 0.2340622544 
-0.05536034703 0.1054777801 0.2324904799 
-0.05658908188 0.1049230993 0.2308874726 
-0.05778907239 0.1043052077 0.2291641831 
-0.05897778273 0.1036555469 0.2273790836 
-0.06017108262 0.1030033827 0.2255871296 
-0.06136894226 0.1023486853 0.2237882614 
-0.06257148087 0.1016915441 0.2219824791 
-0.06375859678 0.1009926796 0.2200960517 
-0.06494997442 0.1002897024 0.2181994915 
-0.06613740325 0.09956628084 0.2162619829 
-0.06732095778 0.09882187843 0.2142823935 
-0.06850962341 0.09807422757 0.2122942805 
-0.06970348954 0.09732332826 0.2102974057 
-0.07088175416 0.09652626514 0.2082106471 
-0.07203905284 0.09567052126 0.206009984 
-0.07317213714 0.09474763274 0.2036790252 
-0.07432307303 0.0938449204 0.2013833523 
-0.07548375428 0.09294551611 0.1990908384 
-0.07665039599 0.09204140306 0.1967865229 
-0.07782311738 0.09113267064 0.1944702864 
-0.07900191844 0.09021919966 0.1921420693 
-0.08017458022 0.08927357197 0.1897493601 
-0.08134891093 0.08831247687 0.1873239875 
-0.08251971006 0.08732351661 0.1848422289 
-0.08365647495 0.08623582125 0.1821682453 
-0.08478283882 0.08510103822 0.1794005632 
-0.08591625094 0.0839587152 0.1766146421 
-0.08705697954 0.08280915022 0.1738110781 
-0.08823685348 0.08172854781 0.1711359024 
-0.089380458 0.0805362463 0.1682426929 
-0.0905316174 0.07933604717 0.1653301716 
-0.09169046581 0.07812789083 0.1623984575 
-0.09286123514 0.07692229748 0.1594675779 
-0.09403122962 0.07568693161 0.1564753056 
-0.09512887895 0.07423740625 0.1530657411 
-0.09624861181 0.0728110671 0.1496961117 
-0.09736549854 0.07134336233 0.1462418437 
-0.09848240018 0.06984034181 0.142714262 
-0.09960027039 0.06830337644 0.1391160488 
-0.1007247567 0.06674644351 0.1354739666 
-0.1018709093 0.06521037221 0.1318671703 
-0.1029317975 0.06339746714 0.1277179122 
-0.1039931476 0.06153944135 0.1234750152 
-0.1050939113 0.05974602699 0.1193514466 
-0.1062188148 0.05797562003 0.1152666807 
-0.1073144525 0.05607190728 0.1109164357 
-0.1083801687 0.05402773619 0.1062859893 
-0.1094572246 0.0519618094 0.101606369 
-0.1105626076 0.04992544651 0.09697747231 
-0.1116357595 0.04773163795 0.09203410149 
-0.1126516759 0.04529488087 0.08660829067 
-0.1136860251 0.04284659028 0.08115178347 
-0.1146809831 0.04019853473 0.07529562712 
-0.1156776249 0.03747716546 0.06928694248 
-0.1166661978 0.03464645147 0.06305456161 
-0.1175493076 0.03137108684 0.05593931675 
-0.1184895784 0.02819034457 0.04899919033 
-0.119417496 0.02486565709 0.04176515341 
-0.1201168746 0.02062106133 0.03270858526 
-0.1206989512 0.0158136785 0.02252864838 
0.07838468254 0.0856257081 0.2366448641 
0.07209597528 0.09090510011 0.2453287244 
0.06727428734 0.0945700407 0.2511888742 
0.06371574104 0.0968284905 0.254583478 
0.0603647083 0.09887200594 0.2576066852 
0.05742947757 0.1004564464 0.2598264217 
0.05457450449 0.1019644141 0.2619163394 
0.05198357999 0.103180021 0.2634943128 
0.04951955378 0.1042595506 0.2648355961 
0.04718141258 0.1052021086 0.265937686 
0.04485626519 0.1061394215 0.2670337558 
0.04259581864 0.1070096791 0.268013835 
0.04036445916 0.1078545451 0.2689517736 
0.03814424574 0.1086952388 0.2698851228 
0.03608931601 0.1093447208 0.2704808712 
0.0340462774 0.1099868417 0.2710657716 
0.03201110661 0.1106265187 0.271648407 
0.03003771603 0.1111972034 0.272110045 
0.02818803489 0.1116208434 0.2723107934 
0.02634309232 0.1120433509 0.2725110054 
0.02450282872 0.1124648452 0.2727108002 
0.02266727388 0.1128852665 0.2729099989 
0.0208363384 0.1133045852 0.2731087804 
0.01905821264 0.1136614382 0.2731966972 
0.01734407246 0.1139402986 0.2731457949 
0.01563282311 0.1142186821 0.2730948925 
0.01392440498 0.1144966781 0.2730442286 
0.01221914589 0.1147738695 0.2729930282 
0.01054359972 0.1150152981 0.2728782892 
0.008870527148 0.1152563691 0.2727636695 
0.007208690047 0.1154853702 0.2726281285 
0.005630657077 0.1156050265 0.2722955346 
0.004053801298 0.1157245636 0.2719631195 
0.00247810781 0.1158440113 0.2716310024 
0.000903531909 0.1159633696 0.2712990642 
-0.000669926405 0.1160826683 0.2709674835 
-0.002224594355 0.1161775887 0.2705919147 
-0.003778219223 0.1162722409 0.2702162266 
-0.005294203758 0.1163154542 0.2697471976 
-0.006759673357 0.1162881553 0.2691498399 
-0.008197978139 0.116222024 0.2684816122 
-0.009636878967 0.1161558926 0.2678131461 
-0.01107634604 0.1160897017 0.2671443224 
-0.01251642406 0.1160235703 0.2664753795 
-0.01394987106 0.1159468889 0.2657869458 
-0.01534947753 0.1158196628 0.2650055885 
-0.01675017178 0.1156923175 0.2642236948 
-0.01815195382 0.1155649126 0.2634411454 
-0.01955483854 0.1154374182 0.2626580596 
-0.02093917131 0.1152802706 0.2618200183 
-0.02231086791 0.1151018143 0.2609422207 
-0.02365362644 0.1148768365 0.2599781752 
-0.02499441803 0.1146456897 0.2590019107 
-0.02633707225 0.1144141257 0.2580241561 
-0.02768164873 0.1141822934 0.2570450902 
-0.02901038527 0.1139223576 0.2560133338 
-0.03033736348 0.113655895 0.2549685836 
-0.0316953361 0.1134348512 0.2540071011 
-0.03305904567 0.1132197678 0.2530559301 
-0.03441153467 0.1129834652 0.2520646453 
-0.03575305641 0.1127258241 0.2510330081 
-0.03706531227 0.1124164164 0.2499041557 
-0.03836026788 0.1120738089 0.2487125397 
-0.0396578908 0.1117304862 0.2475184202 
-0.04094712436 0.1113678813 0.2462872863 
-0.04222282767 0.110976845 0.2450018525 
-0.04346375167 0.1105206013 0.2435933352 
-0.04469066858 0.1100332737 0.2421251535 
-0.04592318833 0.1095479727 0.2406591773 
-0.04715928435 0.1090611815 0.2391887903 
-0.0483584553 0.1085018218 0.2375807166 
-0.04958698153 0.1079853773 0.236051321 
-0.05081930757 0.1074673533 0.2345172167 
-0.05205543339 0.1069476902 0.2329782844 
-0.05329541862 0.1064264774 0.2314347029 
-0.05452297628 0.1058738232 0.2298302054 
-0.0557539016 0.1053181589 0.2282181382 
-0.05698138475 0.1047466695 0.2265744209 
-0.05817183852 0.104096055 0.2247793674 
-0.05936691165 0.1034429371 0.2229773998 
-0.06056655943 0.1027872562 0.2211684585 
-0.06177090108 0.1021291018 0.219352603 
-0.06297986209 0.1014683247 0.2175295949 
-0.0641913265 0.1008006334 0.2156912684 
-0.06539157033 0.1000988185 0.2137859464 
-0.06657873094 0.09935814142 0.2118044496 
-0.06777103245 0.09861433506 0.2098145485 
-0.06896850467 0.09786719084 0.2078157663 
-0.07016937435 0.09711319208 0.2058013678 
-0.07131882012 0.09623852372 0.2035545707 
-0.07246847451 0.09534773231 0.2012740374 
-0.07362408936 0.09445244074 0.1989818811 
-0.07478566468 0.0935524404 0.196677804 
-0.07595324516 0.09264779091 0.1943618059 
-0.07712693512 0.09173852205 0.1920338869 
-0.07830667496 0.09082442522 0.1896936893 
-0.07947584987 0.08986845613 0.1872701049 
-0.08065110445 0.08890670538 0.1848322153 
-0.08183281124 0.08793970942 0.1823810935 
-0.08299045265 0.08689773083 0.1797824502 
-0.084119156 0.08576703072 0.1770097017 
-0.08525298536 0.08462437987 0.1742100716 
-0.08641274273 0.08351826668 0.171477139 
-0.08759459853 0.08244091272 0.1687958241 
-0.08873850107 0.0812484622 0.1658887267 
-0.0898899585 0.08004811406 0.1629623175 
-0.09105293453 0.07884910703 0.1600345373 
-0.09222413599 0.07764354348 0.1570900679 
-0.09339497983 0.07640936971 0.1540860534 
-0.09449243546 0.07495966554 0.1506598592 
-0.09563419223 0.07359007001 0.1473843455 
-0.09679536521 0.0722387135 0.1441397071 
-0.09790919721 0.07072988153 0.14058429 
-0.09902203083 0.06918177009 0.1369473934 
-0.1001476198 0.06763002276 0.1332982183 
-0.101293385 0.06609490514 0.1296762228 
-0.102380991 0.06435972452 0.1256587505 
-0.1034489125 0.06252500415 0.1214411259 
-0.1045626402 0.06077307463 0.1173790097 
-0.1056866646 0.05900493264 0.1132794619 
-0.1067886502 0.05712541938 0.1089558601 
-0.1078530252 0.0550840497 0.104308784 
-0.10892874 0.05302092433 0.09961223602 
-0.1100641191 0.05108231306 0.09515303373 
-0.1111479104 0.04893013835 0.09026789665 
-0.1121618599 0.04649820924 0.08482545614 
-0.113199681 0.04407188296 0.07938587666 
-0.1142401695 0.04158300161 0.07381492853 
-0.1152344793 0.03886932135 0.06779253483 
-0.116218701 0.03604024649 0.06153333187 
-0.1171711907 0.03301772475 0.05488264561 
-0.1181103215 0.02985540032 0.04794555902 
-0.1190289259 0.02652192116 0.04065924883 
-0.1197581887 0.02241289616 0.03182643652 
-0.1203968152 0.01784467697 0.02207005024 
0.07830913365 0.08570364118 0.2327295542 
0.07176028192 0.09127056599 0.241979897 
0.06670184433 0.09519952536 0.2483475208 
0.06361441314 0.09691521525 0.2508041263 
0.06040640175 0.09878754616 0.2535444498 
0.05710582435 0.1007866263 0.2565163374 
0.05438093841 0.102137953 0.2583431602 
0.05178140104 0.1033573151 0.2599396706 
0.04920043051 0.104567945 0.2615246773 
0.04683105648 0.1055418253 0.262691617 
0.0444996804 0.1064811051 0.2638000846 
0.04218126833 0.1074151695 0.2649024129 
0.03987576067 0.1083439887 0.2659984827 
0.0376098007 0.1092352867 0.2670304775 
0.03551806509 0.1099250615 0.2677045465 
0.03355370462 0.1104670763 0.2681159377 
0.03159870207 0.1110037565 0.2685195208 
0.02964992821 0.111538738 0.2689218521 
0.02773450315 0.1120384037 0.2692625523 
0.02584938705 0.1125059724 0.2695471048 
0.02396957576 0.1129721999 0.2698308229 
0.02209509909 0.1134370863 0.2701137066 
0.02024762332 0.1138730645 0.2703459263 
0.01847715676 0.1142157614 0.2704111934 
0.01677887142 0.1144697964 0.2703171968 
0.01509152353 0.1147126555 0.2702038884 
0.01340667903 0.114955157 0.2700906992 
0.01172433794 0.1151973009 0.2699776292 
0.01004450023 0.1154390574 0.269864738 
0.008367076516 0.1156805158 0.2697520852 
0.006754130125 0.1158390641 0.2694895267 
0.005171492696 0.1159589887 0.2691571116 
0.003590077162 0.1160787344 0.2688248158 
0.002010136843 0.1161979139 0.2684918642 
0.0004553347826 0.116284281 0.2680994868 
-0.001098617911 0.1163705885 0.2677072883 
-0.00265173614 0.1164568663 0.2673153281 
-0.004138827324 0.1164523661 0.2667574286 
-0.005616992712 0.1164352894 0.2661765218 
-0.007063299417 0.1163732111 0.2655130625 
-0.008507207036 0.1163068712 0.2648414969 
-0.009951710701 0.1162405014 0.2641697526 
-0.01139679551 0.1161741316 0.2634977698 
-0.01282542944 0.1160831153 0.2627801895 
-0.01422975957 0.115955472 0.2619947791 
-0.01563517749 0.1158277094 0.2612087727 
-0.0170416832 0.1156998873 0.2604221702 
-0.01844929159 0.1155719459 0.2596349716 
-0.01985895634 0.1154453158 0.25884974 
-0.02126580477 0.1153126955 0.2580530047 
-0.02262635529 0.1151081026 0.2571225166 
-0.02398863435 0.1149032712 0.256190896 
-0.02534498274 0.1146864593 0.2552363873 
-0.02668966353 0.1144484878 0.2542418242 
-0.02805145085 0.1142338514 0.2532898188 
-0.0294149965 0.1140188873 0.2523365021 
-0.030780375 0.1138036847 0.2513819933 
-0.03213270009 0.1135645509 0.2503822446 
-0.03347557783 0.1133067906 0.2493467927 
-0.03482052684 0.1130485833 0.2483097911 
-0.0361327976 0.1127332747 0.2471650839 
-0.03743083775 0.1123898923 0.2459668517 
-0.03873157501 0.1120458543 0.2447661161 
-0.04003499448 0.1117010117 0.2435628772 
-0.04132950306 0.1113359034 0.2423204184 
-0.04255561531 0.1108494997 0.2408489585 
