# .PCD v0.7 - Point Cloud Data file format
VERSION 0.7
FIELDS x y z
SIZE 4 4 4
TYPE F F F
COUNT 1 1 1
WIDTH 1107
HEIGHT 1
VIEWPOINT 0 0 0 1 0 0 0
POINTS 1107
DATA ascii
-0.04004830122 -0.06910872459 0.3025554419 
-0.04525250196 -0.07249486446 0.2975658774 
-0.05387866497 -0.07922357321 0.2933680713 
-0.05988538265 -0.08342248201 0.288669765 
-0.06444579363 -0.08622401953 0.2836924195 
-0.06786358356 -0.0879175663 0.2784804702 
-0.07067084312 -0.08901876211 0.2731417716 
-0.07262539864 -0.08928662539 0.267604053 
-0.07415670156 -0.08913892508 0.2619609833 
-0.07533293962 -0.08864086866 0.2562224269 
-0.07653617859 -0.08816766739 0.2504844666 
-0.07750856876 -0.08746427298 0.2446763515 
-0.07836896181 -0.08664733171 0.2388271093 
-0.07930523157 -0.0859028101 0.232988894 
-0.08021569252 -0.08512985706 0.2271330953 
-0.08109784126 -0.08432585001 0.2212583125 
-0.08196759224 -0.08350646496 0.2153688371 
-0.08285886049 -0.08270555735 0.2094751596 
-0.08373576403 -0.08188736439 0.2035660446 
-0.08457881212 -0.08103215694 0.197634697 
-0.0854319334 -0.08018380404 0.1916950643 
-0.0862864852 -0.0793338418 0.1857444644 
-0.08710670471 -0.07844597101 0.179770261 
-0.08793514967 -0.07756310701 0.1737868488 
-0.08876508474 -0.07667851448 0.1677919924 
-0.08949631453 -0.07569044828 0.1617483795 
-0.09026879072 -0.07474046946 0.1557067633 
-0.09122389555 -0.07397305965 0.1497225165 
-0.0919469595 -0.07296586037 0.1436366439 
-0.0926862359 -0.07197147608 0.1375434101 
-0.09350258112 -0.07105243206 0.1314677894 
-0.09437394142 -0.07018613815 0.1254020929 
-0.09510600567 -0.06917339563 0.1192658842 
-0.09587019682 -0.0681899786 0.1131293476 
-0.09664851427 -0.0672172308 0.1069851816 
-0.09745413065 -0.06626915932 0.1008396447 
-0.09826147556 -0.06531924009 0.0946816206 
-0.09898543358 -0.06427896023 0.08847215772 
-0.09970593452 -0.06323117018 0.08224654198 
-0.1004210711 -0.06217378378 0.0760037303 
-0.1011378765 -0.06111395359 0.06974673271 
-0.1018545032 -0.06004995108 0.06347477436 
-0.1025689244 -0.05897951126 0.05718666315 
-0.103299439 -0.05792170763 0.05089145899 
-0.1039495468 -0.05677527189 0.04454037547 
-0.1045587063 -0.05558115244 0.03815191984 
-0.1051499844 -0.05436342955 0.03173705935 
-0.1057671905 -0.05316853523 0.02531862259 
-0.1063896418 -0.05197441578 0.01888588071 
-0.1061236858 -0.04983121157 0.0119509995 
0.04388701916 -0.007353901863 0.3889783919 
-0.01727956533 -0.0638821125 0.3895665407 
-0.03560060263 -0.07972341776 0.3857981861 
-0.03707396984 -0.07951533794 0.3801339269 
-0.03830260038 -0.0790719986 0.3744350672 
-0.03957378864 -0.07866799831 0.3687363863 
-0.04081505537 -0.07823383808 0.3630282581 
-0.04196918011 -0.07771414518 0.3573015928 
-0.04312825203 -0.07719749212 0.3515689969 
-0.04432600737 -0.07671636343 0.3458360434 
-0.04362487793 -0.07439565659 0.3397787809 
-0.04559183121 -0.07465362549 0.3341552317 
-0.04506033659 -0.07248580456 0.3280852139 
-0.0408424139 -0.0667231679 0.3213003278 
-0.04173576832 -0.06592226028 0.3154252768 
-0.04311954975 -0.06559735537 0.3096374273 
-0.04482901096 -0.06558984518 0.3039121628 
-0.0488806963 -0.06787782907 0.2986825705 
-0.05731630325 -0.07447814941 0.294438839 
-0.06377696991 -0.07915973663 0.289838016 
-0.06835520267 -0.08200359344 0.2848638892 
-0.07212418318 -0.0840587616 0.2797349393 
-0.07483762503 -0.08507764339 0.2743756175 
-0.07689261436 -0.08544790745 0.2688648403 
-0.07846707106 -0.08534246683 0.2632354498 
-0.07952737808 -0.08472549915 0.2574692369 
-0.08080655336 -0.08432430029 0.2517539859 
-0.08172369003 -0.08356016874 0.2459331751 
-0.08262813091 -0.0827807188 0.2400986552 
-0.08354067802 -0.08200645447 0.2342560887 
-0.08432805538 -0.08110368252 0.2283660769 
-0.08533036709 -0.08041369915 0.2225292027 
-0.08605736494 -0.07944393158 0.2165977061 
-0.08684355021 -0.07853013277 0.2106719315 
-0.08763635159 -0.07761973143 0.2047360539 
-0.0884308815 -0.07670772076 0.1987884939 
-0.08925580978 -0.07582300901 0.1928388178 
-0.09008193016 -0.07493638992 0.1868776381 
-0.09091109037 -0.07404947281 0.1809055507 
-0.09168505669 -0.07310277224 0.1749016047 
-0.09243667126 -0.07212984562 0.1688766778 
-0.09323173761 -0.07119768858 0.1628546715 
-0.09400779009 -0.07024252415 0.1568127573 
-0.09478449821 -0.06928443909 0.1507579982 
-0.09556269646 -0.06832420826 0.1446907222 
-0.09632575512 -0.06734472513 0.1386042237 
-0.09704977274 -0.06632119417 0.1324883699 
-0.09778118134 -0.0653014183 0.1263614297 
-0.09854781628 -0.06431424618 0.1202352941 
-0.09931612015 -0.0633251071 0.1140962541 
-0.1000858545 -0.06233370304 0.1079441011 
-0.1008574963 -0.06134033203 0.1017790139 
-0.1015503407 -0.06026083231 0.09556469321 
-0.1021951437 -0.05912679434 0.08931329846 
-0.1028941274 -0.05804532766 0.08307132125 
-0.1036454439 -0.05701470375 0.07683891058 
-0.1042985916 -0.05587655306 0.07054495811 
-0.1049649715 -0.05474805832 0.06424146891 
-0.1055902243 -0.05357158184 0.05790179968 
-0.1062498689 -0.05242699385 0.0515627861 
-0.1069013476 -0.05126929283 0.04520344734 
-0.1075183153 -0.05007040501 0.03880995512 
-0.1080830097 -0.04881089926 0.03237196803 
-0.1085345149 -0.04742562771 0.02585595846 
-0.1091680527 -0.04622972012 0.0194183588 
-0.1090025306 -0.04417192936 0.01252657175 
0.05113399029 0.008215904236 0.3890310526 
-0.008730590343 -0.04753321409 0.3893595636 
-0.04071223736 -0.07664012909 0.3871106505 
-0.0424336195 -0.07667136192 0.3814846277 
-0.04364520311 -0.07621020079 0.3757927716 
-0.04475563765 -0.0756495595 0.3700813353 
-0.04593729973 -0.07515603304 0.3643728793 
-0.04710155725 -0.07464379072 0.3586555719 
-0.04815286398 -0.07401990891 0.3529142439 
-0.0491322875 -0.07332366705 0.3471534252 
-0.04950541258 -0.07203304768 0.3412823975 
-0.04980784655 -0.07066869736 0.3353826106 
-0.05170112848 -0.07085818052 0.3297508955 
-0.04584187269 -0.06343865395 0.3226808906 
-0.04673981667 -0.06263709068 0.3168136477 
-0.04788058996 -0.06207180023 0.3109843433 
-0.04948842525 -0.06196534634 0.3052433729 
-0.0524545908 -0.06320148706 0.2997880578 
-0.06021678448 -0.06919240952 0.2953929901 
-0.0672519803 -0.07448357344 0.2909128964 
-0.07219207287 -0.07771140337 0.28601861 
-0.0759691 -0.07979267836 0.2808906734 
-0.07879209518 -0.08092975616 0.2755575776 
-0.0809276104 -0.08138394356 0.2700673938 
-0.08253026009 -0.08130609989 0.2644462585 
-0.0836673975 -0.08076107502 0.2587016225 
-0.0847607851 -0.08017003536 0.2529379725 
-0.08578914404 -0.07951134443 0.2471485138 
-0.08666104078 -0.07869243622 0.2413060665 
-0.08744317293 -0.07777971029 0.235426724 
-0.08819693327 -0.07683491707 0.2295268178 
-0.08905816078 -0.07599562407 0.2236469388 
-0.08990412951 -0.07513779402 0.2177511752 
-0.09069901705 -0.07422459126 0.211827755 
-0.09149241447 -0.07330662012 0.2058916092 
-0.09225106239 -0.07234954834 0.1999316812 
-0.09301143885 -0.07139074802 0.1939595044 
-0.0937396884 -0.07039541006 0.1879633665 
-0.09452074766 -0.06945061684 0.1819723547 
-0.09530353546 -0.06850397587 0.1759691834 
-0.09606784582 -0.06753474474 0.1699464619 
-0.09678655863 -0.06651473045 0.16389364 
-0.09749138355 -0.06547641754 0.1578217149 
-0.0981977582 -0.06443583965 0.1517362297 
-0.09893685579 -0.06342530251 0.1456494629 
-0.09969353676 -0.06242913008 0.1395559013 
-0.1004425883 -0.06142133474 0.1334456205 
-0.1011442542 -0.06036007404 0.127301842 
-0.1018476486 -0.05929654837 0.1211442351 
-0.1025525331 -0.0582305789 0.1149726808 
-0.1032350659 -0.05713695288 0.1087765992 
-0.1038672924 -0.0559861064 0.1025430858 
-0.1045011878 -0.05483263731 0.09629446268 
-0.1052005887 -0.05374383926 0.09005972743 
-0.1058850884 -0.05263519287 0.08380305767 
-0.1065271497 -0.05147713423 0.07751086354 
-0.1071900725 -0.05033671856 0.07121250033 
-0.1078094244 -0.04914546013 0.06487691402 
-0.1084022522 -0.04792124033 0.058511585 
-0.1090127826 -0.04671108723 0.05213788152 
-0.1096228957 -0.04549580812 0.0457470119 
-0.1102216244 -0.0442635417 0.03933313489 
-0.1107438803 -0.04294401407 0.03286162019 
-0.1111364961 -0.04147958755 0.02630245686 
-0.1116470695 -0.04013687372 0.01978623867 
-0.1114023924 -0.03797101974 0.01283687353 
0.05834007263 0.0239366293 0.3891061544 
0.0004888772964 -0.03032565117 0.3890974522 
-0.04538297653 -0.07314908504 0.3883697391 
-0.04747599363 -0.07354336977 0.3827941716 
-0.04869681597 -0.07308918238 0.3771108985 
-0.0497713089 -0.07249063253 0.3714020848 
-0.05085742474 -0.07190132141 0.3656873405 
-0.05185806751 -0.07122606039 0.3599525094 
-0.05281043053 -0.0705011487 0.3542016745 
-0.05382859707 -0.06983822584 0.348452121 
-0.05474758148 -0.06907528639 0.342677623 
-0.05364382267 -0.06631398201 0.3365440369 
-0.05661070347 -0.06756609678 0.3311038911 
-0.05068063736 -0.06001311541 0.3240306377 
-0.0513073802 -0.05893707275 0.3181174397 
-0.05228573084 -0.05820655823 0.3122601211 
-0.05367064476 -0.05787795782 0.3064764738 
-0.05636513233 -0.05885452032 0.3009648323 
-0.06294393539 -0.06371563673 0.2963101864 
-0.0704908967 -0.06956356764 0.2919351757 
-0.07554858923 -0.07293665409 0.2870627046 
-0.07956415415 -0.07527500391 0.2819872499 
-0.08240246773 -0.07643705606 0.2766557336 
-0.08477497101 -0.07713371515 0.271222949 
-0.08643943071 -0.07711756229 0.2656175494 
-0.08750587702 -0.07649618387 0.2598546147 
-0.08853417635 -0.07583391666 0.2540732026 
-0.08955520391 -0.07516169548 0.2482810915 
-0.09041315317 -0.07432103157 0.2424339354 
-0.09121334553 -0.07341843843 0.2365589738 
-0.09199678898 -0.0724952817 0.2306670845 
-0.09273988008 -0.07152742147 0.2247507572 
-0.09348446131 -0.07055753469 0.2188220024 
-0.09424322844 -0.06959849596 0.212884903 
-0.09500277042 -0.06863677502 0.2069352567 
-0.09569835663 -0.06760543585 0.2009516358 
-0.09639555216 -0.0665717721 0.1949547231 
-0.09714370966 -0.06558710337 0.1889615655 
-0.09792858362 -0.06463676691 0.1829681098 
-0.09856313467 -0.0635266304 0.1769079864 
-0.09930932522 -0.06252849102 0.1708737016 
-0.1000580192 -0.06152921915 0.1648268998 
-0.1007838845 -0.06050223112 0.1587578952 
-0.1014848948 -0.05944538116 0.1526654065 
-0.1021617055 -0.05835902691 0.1465490162 
-0.1028400064 -0.05727016926 0.1404184699 
-0.1035199761 -0.05617886782 0.1342737675 
-0.1042045951 -0.05508816242 0.1281159818 
-0.1049109697 -0.0540163517 0.1219525933 
-0.1055445075 -0.05286335945 0.1157432497 
-0.106179595 -0.05170744658 0.1095187068 
-0.1068162322 -0.05054873228 0.1032789648 
-0.1074544191 -0.04938721657 0.09702396393 
-0.1080940962 -0.04822266102 0.09075349569 
-0.1086071134 -0.04691827297 0.08440795541 
-0.1092028618 -0.04569745064 0.07808354497 
-0.1098454595 -0.04452198744 0.07176467776 
-0.1104968786 -0.04335153103 0.06543377042 
-0.1110547781 -0.042075634 0.05904015899 
-0.111397028 -0.04056185484 0.0525200963 
-0.112138629 -0.03947424889 0.04618290067 
-0.1125730872 -0.03804934025 0.03967121243 
-0.1129999757 -0.03661054373 0.03313550353 
-0.1134371161 -0.03517735004 0.02658504248 
-0.113758862 -0.0336125493 0.01995182037 
-0.1136263609 -0.0315451622 0.0130468905 
0.06675934792 0.04103374481 0.3890732825 
0.01005935669 -0.01255214214 0.3888171613 
-0.04878771305 -0.0684311986 0.3894805908 
-0.05225813389 -0.07017940283 0.3840702176 
-0.05341762304 -0.06966257095 0.3783848882 
-0.05439388752 -0.06896358728 0.3726683855 
-0.05539005995 -0.06828165054 0.3669458926 
-0.05641776323 -0.06762838364 0.3612194061 
-0.05736404657 -0.06689226627 0.3554722071 
-0.05824828148 -0.0660918951 0.3497057557 
-0.05913823843 -0.06529438496 0.3439301252 
-0.05803757906 -0.062512815 0.3378015757 
-0.06094056368 -0.06371307373 0.3323523998 
-0.05546945333 -0.05655306578 0.3253702521 
-0.05556678772 -0.05493932962 0.3193617463 
-0.05646359921 -0.05412113667 0.3134905696 
-0.05791801214 -0.05385994911 0.3077226579 
-0.05975937843 -0.05398726463 0.3020329475 
-0.06519907713 -0.05774199963 0.2971257567 
-0.07334619761 -0.06424438953 0.2928721309 
-0.07882648706 -0.06807279587 0.2880890369 
-0.08282661438 -0.0704151392 0.283005327 
-0.08589297533 -0.0718177557 0.2777248621 
-0.08832705021 -0.07258248329 0.2723047137 
-0.09005844593 -0.0726338625 0.2667143941 
-0.09118956327 -0.07207250595 0.2609668672 
-0.09218126535 -0.07136654854 0.2551743984 
-0.093090415 -0.07057327032 0.2493498623 
-0.09395414591 -0.06973046064 0.2435020804 
-0.0946880579 -0.06875097752 0.2376056015 
-0.09538733959 -0.06773203611 0.2316859365 
-0.09617251158 -0.06679803133 0.2257789373 
-0.09695929289 -0.06586223841 0.2198600769 
-0.0976459384 -0.06481909752 0.2138970792 
-0.09835427999 -0.06379461288 0.2079273164 
-0.09906429052 -0.06276792288 0.2019445002 
-0.09977591038 -0.0617390275 0.1959484816 
-0.1004163623 -0.06063199043 0.1899143159 
-0.1010423303 -0.05950564146 0.1838602424 
-0.1017745733 -0.05848628283 0.1778291464 
-0.1024869084 -0.05744218826 0.171777159 
-0.1031013131 -0.05629110336 0.1656746268 
-0.1037587523 -0.05518090725 0.1595729589 
-0.104444325 -0.05409628153 0.1534671783 
-0.1051315665 -0.05300909281 0.1473473907 
-0.1058202386 -0.0519194603 0.1412135363 
-0.1064404249 -0.05075275898 0.1350368857 
-0.1070313454 -0.04955041409 0.1288321614 
-0.1076225638 -0.04834377766 0.1226112545 
-0.1082332134 -0.04715323448 0.1163822412 
-0.1088539958 -0.04596877098 0.1101413071 
-0.1094762087 -0.04478138685 0.1038848758 
-0.1100686789 -0.04355740547 0.09759870172 
-0.1106369495 -0.04230248928 0.09128451347 
-0.1111818552 -0.04101759195 0.08494219184 
-0.1116850376 -0.03968250751 0.07856231928 
-0.1121935844 -0.03834789991 0.07216656208 
-0.1127461195 -0.03705585003 0.06577381492 
-0.1132503748 -0.03570628166 0.05933919549 
-0.1137206554 -0.03431415558 0.05286857486 
-0.1142180562 -0.03294628859 0.0463924706 
-0.1146624684 -0.03151506186 0.03986978531 
-0.1150573492 -0.03002369404 0.03330084682 
-0.1153940558 -0.028462708 0.02667999268 
-0.1157246232 -0.02688860893 0.02003374696 
-0.1153007746 -0.02447634935 0.01295006275 
0.01830720901 0.004148483276 0.3887026906 
-0.04413300753 -0.0557435751 0.3896618485 
-0.05651915073 -0.0663151145 0.3852815926 
-0.05776065588 -0.06587570906 0.3796094358 
-0.05877286196 -0.06520712376 0.3739010692 
-0.05974292755 -0.064494133 0.3681783974 
-0.060741961 -0.06380742788 0.3624510169 
-0.06154638529 -0.06292396784 0.3566852808 
-0.06235826015 -0.06204485893 0.3509095907 
-0.0632853508 -0.06127780676 0.3451418281 
-0.06267410517 -0.05896371603 0.3391003311 
-0.06478369236 -0.0593777895 0.3335138559 
-0.06122988462 -0.05408680439 0.326888293 
-0.05955928564 -0.05067765713 0.3205547929 
-0.06029129028 -0.04968571663 0.3146517277 
-0.06143546104 -0.04910767078 0.3088199496 
-0.06324529648 -0.04920321703 0.3031207025 
-0.0675868392 -0.05187356472 0.2979712486 
-0.07586443424 -0.05856329203 0.2937345505 
-0.08169698715 -0.06278240681 0.2890221477 
-0.08601272106 -0.06546604633 0.2840056419 
-0.08918893337 -0.06699240208 0.2787469327 
-0.09162473679 -0.06776452065 0.2733232379 
-0.09350425005 -0.06796747446 0.2677669525 
-0.09462487698 -0.06738960743 0.2620139122 
-0.09558016062 -0.06663894653 0.2562087476 
-0.09653693438 -0.06588691473 0.2503941953 
-0.09735369682 -0.06498706341 0.2445302308 
-0.09804582596 -0.06395453215 0.2386183739 
-0.09874713421 -0.06292766333 0.2326957285 
-0.09949213266 -0.06194245815 0.2267728448 
-0.1001493931 -0.06086200476 0.2208097875 
-0.100808084 -0.05977886915 0.2148329616 
-0.1014961004 -0.05872249603 0.2088513374 
-0.1021684408 -0.05764561892 0.2028505802 
-0.1028397083 -0.05656343699 0.1968351603 
-0.1035124063 -0.05547875166 0.1908058524 
-0.1041502953 -0.05435311794 0.1847499311 
-0.1047660112 -0.05319976807 0.1786709726 
-0.1053831577 -0.05204355717 0.1725772321 
-0.1060019135 -0.05088466406 0.1664685905 
-0.1066707373 -0.04977440834 0.1603634357 
-0.1072605848 -0.04857581854 0.1542127728 
-0.1078519821 -0.04737430811 0.1480466425 
-0.1084448695 -0.04616963863 0.141864866 
-0.1090382338 -0.04496097565 0.1356670856 
-0.1096321344 -0.04374814034 0.1294531226 
-0.1102276444 -0.04253220558 0.1232233942 
-0.1107625961 -0.04124641418 0.116951108 
-0.1112776995 -0.03993409872 0.110652566 
-0.1118001342 -0.03862458467 0.1043394208 
-0.1123239994 -0.03731149435 0.09800904989 
-0.1128112674 -0.03595352173 0.09164381027 
-0.1132239103 -0.03450894356 0.08522510529 
-0.1138172746 -0.03325587511 0.07887241244 
-0.114280045 -0.03185504675 0.07243940234 
-0.1147269607 -0.0304313302 0.06597927213 
-0.1153652072 -0.02921193838 0.0595947504 
-0.1156022549 -0.027546525 0.05299052596 
-0.1161202192 -0.02618414164 0.04650732875 
-0.1164818406 -0.02464359999 0.03992378712 
-0.116823256 -0.02307456732 0.03330805898 
-0.1170070171 -0.02132463455 0.02658596635 
-0.1171876788 -0.01956415176 0.01983761787 
-0.1165608764 -0.016898036 0.01261916757 
0.02501046658 0.01952445507 0.3887752593 
-0.03562265635 -0.03906738758 0.3894139826 
-0.06055474281 -0.06223213673 0.3864651918 
-0.06194281578 -0.06193572283 0.3808128834 
-0.06284278631 -0.06114935875 0.3750918508 
-0.06373220682 -0.06034958363 0.3693595529 
-0.06465184689 -0.05957722664 0.3636216521 
-0.06551474333 -0.05874502659 0.357865423 
-0.06630420685 -0.05783569813 0.3520871699 
-0.06723678112 -0.05706763268 0.3463210166 
-0.06687295437 -0.0549839735 0.3403233886 
-0.06818944216 -0.05459755659 0.3345977664 
-0.06843817234 -0.05312424898 0.3286708593 
-0.06320160627 -0.04606002569 0.3216811419 
-0.06378376484 -0.04490596056 0.3157470822 
-0.06493359804 -0.0443277359 0.3099136949 
-0.06637042761 -0.04404139519 0.3041331768 
-0.07000744343 -0.04601091146 0.298824966 
-0.07819551229 -0.05266469717 0.2945561409 
-0.08437669277 -0.05727690458 0.2899121046 
-0.0887466073 -0.06003785133 0.2848995924 
-0.09217470884 -0.06183576584 0.2796940207 
-0.09479928017 -0.06280845404 0.2743112445 
-0.09662789106 -0.06295907497 0.2687372267 
-0.09784531593 -0.06247520447 0.2630046606 
-0.09882152081 -0.06173837185 0.2572007775 
-0.09963560104 -0.06082957983 0.251342535 
-0.1004360318 -0.05990314484 0.2454687059 
-0.1012443304 -0.05898153782 0.2395850718 
-0.1019115448 -0.05790829659 0.2336475551 
-0.1025170088 -0.05676627159 0.2276773155 
-0.1031238437 -0.05562138557 0.2216925323 
-0.1037321091 -0.05447345972 0.2156931758 
-0.1043664813 -0.05334895849 0.2096872032 
-0.1050317287 -0.05225282907 0.2036766708 
-0.1056492925 -0.05110186338 0.1976355612 
-0.1062303185 -0.04990774393 0.1915666163 
-0.1068335772 -0.04873275757 0.1854897141 
-0.107465148 -0.0475833416 0.1794073284 
-0.108033061 -0.04636156559 0.1732864082 
-0.1085096598 -0.04503726959 0.1671151519 
-0.1091316938 -0.04386389256 0.1609814763 
-0.1097550988 -0.04268747568 0.154832691 
-0.1103795767 -0.04150772095 0.148668617 
-0.1108992696 -0.04021018744 0.1424465179 
-0.1114070415 -0.03889483213 0.1362021565 
-0.1119139791 -0.03757339716 0.1299396753 
-0.1124224663 -0.03624850512 0.123660028 
-0.1129399538 -0.03492820263 0.1173663735 
-0.1134640574 -0.0336099267 0.1110576689 
-0.1138890982 -0.03217828274 0.1046869159 
-0.1143349409 -0.03076380491 0.09830611944 
-0.1147692204 -0.02933102846 0.09190067649 
-0.1151396036 -0.0278224349 0.08544576168 
-0.1156647801 -0.02647829056 0.07904389501 
-0.1160504222 -0.024974823 0.07255610824 
-0.1163913608 -0.02341610193 0.06602570415 
-0.1169512868 -0.02209371328 0.0595830977 
-0.1171656847 -0.02038246393 0.05294725299 
-0.1175527573 -0.01885646582 0.04637646675 
-0.1178739071 -0.0172509551 0.03975024819 
-0.1180107594 -0.01543319225 0.03300413489 
-0.118078053 -0.01353037357 0.02619537711 
-0.1183665991 -0.01186800003 0.01948070526 
-0.1172602773 -0.008632183075 0.01197162271 
0.03148055077 0.03485417366 0.388890177 
-0.02650314569 -0.02156400681 0.3891158402 
-0.06426090002 -0.05782008171 0.3876089752 
-0.06583058834 -0.05770403147 0.3819787502 
-0.06672620773 -0.05690646172 0.3762577176 
-0.06750202179 -0.05598467588 0.3705101013 
-0.06841814518 -0.05520176888 0.3647714257 
-0.069244802 -0.05432528257 0.3590094447 
-0.06988495588 -0.05325573683 0.3532070518 
-0.07057666779 -0.05223476887 0.3473997712 
-0.07091063261 -0.05084460974 0.3415186405 
-0.07105714083 -0.04925763607 0.3355869055 
-0.07256442308 -0.04905998707 0.3298848271 
-0.06655931473 -0.04114466906 0.3227537572 
-0.06711804867 -0.03995525837 0.3168117404 
-0.06800043583 -0.03909504414 0.3109202683 
-0.06924527884 -0.03860616684 0.3050938249 
-0.07238191366 -0.04007315636 0.2996697724 
-0.08020114899 -0.0464001298 0.2953063846 
-0.08670830727 -0.05138790607 0.2907230258 
-0.09138560295 -0.05449008942 0.2857718468 
-0.09491318464 -0.05640506744 0.2805815935 
-0.09763622284 -0.05748701096 0.2752155066 
-0.09952300787 -0.05769777298 0.2696493268 
-0.1008938551 -0.05736851692 0.2639504671 
-0.1018269062 -0.05657815933 0.2581294179 
-0.1026334763 -0.05565166473 0.252263248 
-0.1033525467 -0.05462944508 0.2463603914 
-0.1040593982 -0.05359059572 0.2404407263 
-0.1047192216 -0.05249780416 0.2344936132 
-0.1053293943 -0.0513483882 0.2285172641 
-0.1059411764 -0.05019629002 0.2225264013 
-0.1065543294 -0.04904121161 0.2165209353 
-0.1071606874 -0.04787456989 0.2104981542 
-0.1077429652 -0.04667764902 0.2044521272 
-0.1083266735 -0.04547768831 0.1983908415 
-0.1089057922 -0.04426825047 0.1923122108 
-0.1094658971 -0.04303371906 0.1862109303 
-0.1099156141 -0.04167556763 0.1800536513 
-0.1103615165 -0.04030811787 0.1738770306 
-0.1108950377 -0.03903001547 0.167715013 
-0.1114658713 -0.03778731823 0.1615502536 
-0.1119920015 -0.03649139404 0.1553515792 
-0.1125196218 -0.03519201279 0.1491362154 
-0.1130404472 -0.03388017416 0.1429007649 
-0.1135584712 -0.0325602293 0.1366466284 
-0.114069581 -0.03122740984 0.1303718388 
-0.1144658327 -0.02976363897 0.1240304112 
-0.1148509383 -0.0282818675 0.1176644862 
-0.1152214408 -0.02677816153 0.1112720966 
-0.1156318784 -0.02531260252 0.1048772633 
-0.1160058379 -0.02380096912 0.09844598174 
-0.1163671613 -0.02226930857 0.09198832512 
-0.1166984439 -0.02069836855 0.08549582958 
-0.1171008945 -0.0192002058 0.07901582122 
-0.1175162196 -0.0177103281 0.07252156734 
-0.1178642511 -0.0161395669 0.0659738481 
-0.1181252003 -0.01446515322 0.05936107039 
-0.11841923 -0.0128210187 0.0527420938 
-0.1185385585 -0.01097434759 0.04601046443 
-0.1186621785 -0.009125113487 0.03925570846 
-0.1187685728 -0.007248878479 0.03246614337 
-0.1188634038 -0.005352199078 0.02564448118 
-0.1188026071 -0.003271758556 0.01871144772 
-0.1172745228 0.0004801750183 0.01093655825 
0.0373519659 0.04976403713 0.3890861869 
-0.01817291975 -0.004632294178 0.3889273107 
-0.06727057695 -0.05269753933 0.388669908 
-0.06930094957 -0.0530475378 0.383092165 
-0.07023245096 -0.0522788763 0.3773737848 
-0.07100892067 -0.05134904385 0.3716245294 
-0.07180982828 -0.05044078827 0.3658672273 
-0.07257640362 -0.0494940877 0.3600935042 
-0.07324075699 -0.04843896627 0.3542919755 
-0.07398355007 -0.04746061563 0.348490119 
-0.07459717989 -0.04634565115 0.342654109 
-0.07361906767 -0.04358315468 0.3365232348 
-0.07609409094 -0.04438209534 0.3309895098 
-0.06954598427 -0.03583407402 0.323756665 
-0.06997615099 -0.03449887037 0.3177836537 
-0.07083261013 -0.03360205889 0.3118801117 
-0.07193028927 -0.03295338154 0.3060157001 
-0.07450115681 -0.03384011984 0.3004606962 
-0.08176511526 -0.03963851929 0.2959597707 
-0.08880496025 -0.04522383213 0.2914811373 
-0.0937718153 -0.0486536622 0.2865852118 
-0.09744775295 -0.05073875189 0.2814203501 
-0.1003435254 -0.05200952291 0.2760879397 
-0.102312088 -0.05230617523 0.2705346942 
-0.1036725044 -0.05196082592 0.2648257315 
-0.1045858264 -0.05114036798 0.2589919865 
-0.1053637862 -0.0501729846 0.2531103194 
-0.1060677767 -0.04912334681 0.2471953034 
-0.1067083478 -0.04800212383 0.2412483692 
-0.1073489785 -0.04687666893 0.2352869809 
-0.1079509258 -0.04570561647 0.2292992771 
-0.1084682941 -0.04443943501 0.2232701182 
-0.108951807 -0.04313200712 0.2172137499 
-0.1094811559 -0.04186886549 0.2111552358 
-0.1100224853 -0.04061388969 0.2050842345 
-0.1105832458 -0.03937494755 0.1990033388 
-0.1111005545 -0.03808426857 0.1928912401 
-0.1115574241 -0.0367231369 0.1867409348 
-0.1120498776 -0.03539526463 0.180585444 
-0.1124776602 -0.03399199247 0.1743887961 
-0.1129696369 -0.03265327215 0.1681976616 
-0.113499403 -0.03135055304 0.1620031893 
-0.1140019894 -0.03001302481 0.1557808816 
-0.1144192219 -0.02857673168 0.1495070755 
-0.1148591638 -0.02715963125 0.1432232857 
-0.1151992083 -0.02562707663 0.1368796527 
-0.1155005097 -0.0240457058 0.1304993331 
-0.1158298254 -0.02248901129 0.124109745 
-0.1162493825 -0.0210262537 0.1177383661 
-0.1166366935 -0.01952195168 0.1113331318 
-0.1169964671 -0.01798099279 0.1048953235 
-0.1173404455 -0.01641631126 0.09842956066 
-0.1176247597 -0.01477873325 0.0919149816 
-0.1179389358 -0.01316815615 0.08539232612 
-0.1182771325 -0.01157808304 0.07885932922 
-0.1183028817 -0.00963062048 0.07215306163 
-0.1186345816 -0.00801974535 0.06557103992 
-0.1187434196 -0.006151139736 0.0588555634 
-0.1188129187 -0.004230380058 0.05209442973 
-0.1189453602 -0.002373278141 0.04533946514 
-0.1189491749 -0.0003627538681 0.03849169612 
-0.1188496351 0.00177359581 0.03156125546 
-0.1188341975 0.003822565079 0.02464678884 
-0.1186817288 0.006036400795 0.01762893796 
-0.1154184341 0.0118175745 0.0088532269 
0.04353821278 0.06517291069 0.38926512 
-0.01078784466 0.01155030727 0.3888642192 
-0.06874996424 -0.04599189758 0.3895506561 
-0.07256370783 -0.04817074537 0.384180218 
-0.07347387075 -0.04737222195 0.3784556687 
-0.07422673702 -0.04640883207 0.3726996779 
-0.07500505447 -0.04546809196 0.366935432 
-0.0757047534 -0.04444265366 0.3611477613 
-0.07635444403 -0.04336166382 0.3553395867 
-0.07688629627 -0.04215437174 0.3494988084 
-0.077670753 -0.04120528698 0.3436858654 
-0.07616657019 -0.03786915541 0.3374584317 
-0.07893210649 -0.03897559643 0.3319683671 
-0.0723208189 -0.03028452396 0.3247204423 
-0.07245981693 -0.02863037586 0.3186833262 
-0.07309657335 -0.02749228477 0.3127260506 
-0.07420158386 -0.02684223652 0.3068521917 
-0.07642626762 -0.02736890316 0.3012111783 
-0.08327966928 -0.03278112411 0.2966037393 
-0.0908460021 -0.03896737099 0.2922276258 
-0.09591710567 -0.04253417253 0.287342757 
-0.09974473715 -0.04479509592 0.2822023034 
-0.1027327776 -0.04617202282 0.2768817544 
-0.1048579812 -0.04663515091 0.2713583708 
-0.1062526703 -0.04632055759 0.2656493187 
-0.1071443558 -0.04546701908 0.2598009109 
-0.1078876853 -0.04445129633 0.2539006472 
-0.1085953116 -0.04339343309 0.2479773164 
-0.1092514396 -0.04227620363 0.2420254648 
-0.1097666025 -0.0410027504 0.2360174358 
-0.1102653146 -0.03970676661 0.2299879789 
-0.1107653379 -0.03840720654 0.2239422202 
-0.1112642884 -0.03710144758 0.2178792953 
-0.1117169261 -0.03574049473 0.2117844224 
-0.1121652126 -0.03436946869 0.2056704462 
-0.1126432419 -0.03302556276 0.1995486617 
-0.1131532192 -0.03171139956 0.1934204102 
-0.1135790944 -0.03030014038 0.1872453392 
-0.1139904261 -0.02886730433 0.1810465157 
-0.1144029498 -0.02743035555 0.174829334 
-0.11481148 -0.02598339319 0.168591857 
-0.1152228713 -0.02453380823 0.1623363197 
-0.1156353951 -0.02307993174 0.1560621262 
-0.1159702539 -0.0215343833 0.1497379839 
-0.116276443 -0.0199509263 0.1433817744 
-0.1165834665 -0.0183621645 0.1370049119 
-0.1168915033 -0.0167683363 0.1306073368 
-0.117194891 -0.01516282558 0.1241865158 
-0.1174500585 -0.01349723339 0.1177234054 
-0.1177054048 -0.0118252039 0.1112380922 
-0.1179225445 -0.01010352373 0.1047132015 
-0.1180512309 -0.00827562809 0.09812495112 
-0.1181815267 -0.006442189217 0.09151276946 
-0.1184206605 -0.004724383354 0.08492720127 
-0.1186625957 -0.003002822399 0.07831975818 
-0.1187850237 -0.001138806343 0.07163086534 
-0.1188743711 0.0007702112198 0.06490039825 
-0.1187663674 0.002911448479 0.05804499984 
-0.1189172268 0.004766345024 0.05129224062 
-0.1186751127 0.007077693939 0.04431095719 
-0.1186380982 0.009163498878 0.0374057889 
-0.1182582974 0.01165127754 0.03028938174 
-0.1178641319 0.01416552067 0.02313110232 
-0.1171510816 0.01705741882 0.01576328278 
-0.003377556801 0.02796220779 0.3888164163 
-0.0637691021 -0.0325678587 0.3896737695 
-0.07549840212 -0.04294317961 0.3852285147 
-0.07656270266 -0.04229581356 0.3795185685 
-0.07719260454 -0.04119467735 0.3737412691 
-0.07780152559 -0.04006767273 0.3679474592 
-0.078540802 -0.03907239437 0.362159282 
-0.07912743092 -0.0379140377 0.3563350439 
-0.07971537113 -0.03675276041 0.350496769 
-0.080273211 -0.03555566072 0.3446390033 
-0.07873564959 -0.03215271235 0.3383988738 
-0.08144110441 -0.03320294619 0.332888484 
-0.0747166276 -0.02431356907 0.3256138861 
-0.07463163137 -0.02240526676 0.3195235431 
-0.07507878542 -0.02105295658 0.3135166466 
-0.07615226507 -0.02035975456 0.307623297 
-0.07809585333 -0.02058839798 0.3019082546 
-0.08412432671 -0.02516573668 0.2971009612 
-0.0924192667 -0.03217720985 0.2928685248 
-0.09774965048 -0.03604775667 0.288027823 
-0.1017847657 -0.03854650259 0.2829229832 
-0.1048665047 -0.04003232718 0.2776128352 
-0.1071243882 -0.04063850641 0.2721112072 
-0.1085939407 -0.0403984189 0.2664107084 
-0.1094480157 -0.03949356079 0.2605416775 
-0.110083282 -0.03834873438 0.2546007633 
-0.1107970476 -0.03728461266 0.2486674488 
-0.1113569736 -0.03604954481 0.2426759601 
-0.1118819118 -0.03477162123 0.2366582751 
-0.1123771071 -0.03345650434 0.2306151986 
-0.1127907038 -0.03204727173 0.2245298624 
-0.1132053733 -0.03063374758 0.2184267044 
-0.1136214137 -0.02921628952 0.2123057544 
-0.1140295267 -0.02778470516 0.2061638534 
-0.1143732071 -0.02627658844 0.1999815404 
-0.1147037745 -0.02474820614 0.1937751174 
-0.1150301099 -0.02320927382 0.1875473559 
-0.1154447198 -0.02176183462 0.1813313067 
-0.1158063412 -0.02025020123 0.1750769019 
-0.1161778569 -0.01874351501 0.1688064337 
-0.1165537834 -0.01723575592 0.1625178754 
-0.1168356538 -0.01561737061 0.1561728716 
-0.1171355844 -0.01401269436 0.1498137712 
-0.1173202991 -0.01227277517 0.14338696 
-0.1174702048 -0.01048696041 0.1369228363 
-0.1175995469 -0.008670985699 0.1304264367 
-0.1177885532 -0.00691485405 0.1239313781 
-0.1180422902 -0.005224823952 0.117441088 
-0.1181203127 -0.003329455853 0.1108506918 
-0.1182341576 -0.001467049122 0.1042511165 
-0.1182322502 0.0005340576172 0.09757381678 
-0.1185169816 0.002217531204 0.09100264311 
-0.1184238791 0.004337906837 0.0842307508 
-0.1182867289 0.006517291069 0.07740920782 
-0.1183720231 0.008450984955 0.07066658139 
-0.1182426214 0.01063859463 0.06379163265 
-0.1180129051 0.01295018196 0.05683669448 
-0.1179986596 0.01502346992 0.04996028543 
-0.1174727678 0.0176949501 0.04279068112 
-0.1172699928 0.02000391483 0.03575462103 
-0.1164080501 0.02308571339 0.02833521366 
-0.1158083081 0.02587580681 0.02101570368 
-0.1134727597 0.03069543839 0.01270380616 
0.002840042114 0.04333972931 0.3889190257 
-0.05716699362 -0.01729494333 0.3896207809 
-0.0781493187 -0.03740221262 0.3862431645 
-0.07910436392 -0.03663253784 0.3805116415 
-0.07981836796 -0.03560739756 0.3747378886 
-0.08042019606 -0.03446060419 0.3689356446 
-0.08099931479 -0.03328579664 0.3631159663 
-0.08156007528 -0.03208726645 0.3572790325 
-0.08203959465 -0.03079837561 0.3514142334 
-0.08267474174 -0.02966946363 0.3455598056 
-0.08144110441 -0.02655589581 0.3393646479 
-0.08340811729 -0.02682888508 0.3337116838 
-0.07713216543 -0.01833480597 0.3265125751 
-0.07640790939 -0.01572531462 0.3202884197 
-0.07652467489 -0.01400405169 0.3142010272 
-0.07741457224 -0.01310330629 0.3082529306 
-0.07912224531 -0.01307564974 0.3024690449 
-0.08491653204 -0.01743578911 0.297588706 
-0.09344744682 -0.02475643158 0.2933866978 
-0.09945774078 -0.02938812971 0.2886849046 
-0.1035299897 -0.03194439411 0.2835733891 
-0.1068507433 -0.03369754553 0.2783075869 
-0.1090712547 -0.03426456451 0.2727832198 
-0.1105989218 -0.03408145905 0.2670845985 
-0.1115056872 -0.03322196007 0.2612167597 
-0.1121194363 -0.03203970194 0.2552572787 
-0.1127666235 -0.0308894515 0.2492922246 
-0.1132914424 -0.02960091829 0.2432771325 
-0.1137394309 -0.02822303772 0.2372227907 
-0.1140853763 -0.02672785521 0.2311198711 
-0.1144684553 -0.02526777983 0.2250093818 
-0.1148059964 -0.02375179529 0.2188656628 
-0.1151106954 -0.02219367027 0.2126918137 
-0.1155571938 -0.02078640461 0.2065449655 
-0.1158912182 -0.01924884319 0.2003418207 
-0.1161675453 -0.01764124632 0.1940988302 
-0.1163608432 -0.01593494415 0.1878057122 
-0.1169772148 -0.01469385624 0.1816429496 
-0.1171635985 -0.01296728849 0.175305903 
-0.117269516 -0.0111438036 0.1689162254 
-0.1173651218 -0.009301424026 0.1624987721 
-0.1174883842 -0.007482945919 0.1560679972 
-0.1177257895 -0.005785882473 0.1496587396 
-0.1178601384 -0.003965735435 0.1431854963 
-0.1179489493 -0.002086937428 0.1366695762 
-0.1179749966 -0.0001292824745 0.1301024854 
-0.1180395484 0.001792192459 0.1235260665 
-0.1181045175 0.003720998764 0.1169243455 
-0.1180614829 0.005780816078 0.1102492809 
-0.1179336309 0.007945656776 0.1035088003 
-0.1178337932 0.01008713245 0.09675225616 
-0.1177811623 0.01218318939 0.08998903632 
-0.1175389886 0.01450550556 0.08310830593 
-0.1171914339 0.01695871353 0.07614588737 
-0.116963625 0.01928365231 0.06920892 
-0.1167114973 0.0216460228 0.06222859025 
-0.1160683036 0.02447140217 0.05501961708 
-0.1156010032 0.02710402012 0.04786235094 
-0.1151072383 0.0297781229 0.04065576196 
-0.1140238047 0.03315079212 0.03310212493 
-0.1129050255 0.03657865524 0.02548378706 
-0.1111101508 0.04081225395 0.01745173335 
0.007989287376 0.05778336525 0.3891558051 
-0.04980975389 -0.001037597656 0.3894963264 
-0.08038979769 -0.03140640259 0.3872094154 
-0.08152300119 -0.03081482649 0.3814907968 
-0.08207857609 -0.02961039543 0.3756867647 
-0.08268922567 -0.02845972776 0.3698759377 
-0.08323049545 -0.02723127604 0.364040792 
-0.08365261555 -0.02587157488 0.3581722081 
-0.08403980732 -0.02446955442 0.3522813916 
-0.08459019661 -0.02323651314 0.3464007974 
-0.08390974998 -0.02068305016 0.340290457 
-0.08505827188 -0.02007883787 0.33447963 
-0.08074218035 -0.01360875368 0.3276367188 
-0.07734036446 -0.008097171783 0.3208914995 
-0.07741349936 -0.006307542324 0.3147757649 
-0.07828623056 -0.005374133587 0.3088037372 
-0.08004915714 -0.00539958477 0.3030107617 
-0.08509004116 -0.008975744247 0.2979420424 
-0.09438377619 -0.01718091965 0.2938857675 
-0.1005720496 -0.02204060555 0.289204061 
-0.1051424742 -0.02515643835 0.2841929793 
-0.1083690524 -0.02681744099 0.2788876891 
-0.1106402874 -0.0274399519 0.2733597159 
-0.1122477651 -0.02733772993 0.2676659226 
-0.1132872701 -0.02661162615 0.2618182302 
-0.113840878 -0.0253482461 0.2558275163 
-0.1144062877 -0.02409297228 0.2498241663 
-0.1149791479 -0.02284115553 0.2438070476 
-0.1153966188 -0.0214124918 0.2377279699 
-0.1156319976 -0.01977664232 0.2315754592 
-0.1158387661 -0.01810252666 0.2253932059 
-0.1161312461 -0.01651728153 0.2192167938 
-0.1164152622 -0.01491641998 0.2130173445 
-0.1166487336 -0.01325291395 0.2067806423 
-0.1168538332 -0.01155102253 0.2005129158 
-0.1170570254 -0.009840369225 0.1942225993 
-0.1172057986 -0.008061885834 0.1878910363 
-0.1173443198 -0.006264805794 0.1815327704 
-0.1174809337 -0.004458546638 0.1751505435 
-0.1176145077 -0.002641677856 0.1687437594 
-0.1177411675 -0.0008097290993 0.1623106897 
-0.1177615523 0.001150012016 0.1558122933 
-0.1176960468 0.003215193748 0.1492542028 
-0.1177118421 0.005196094513 0.1427020133 
-0.1177325249 0.007179260254 0.1361259222 
-0.1176108122 0.009333133698 0.1294639707 
-0.1174609661 0.01152813435 0.1227616668 
-0.1172398329 0.01381361485 0.1159994602 
-0.1169734597 0.01616036892 0.1091869771 
-0.116620481 0.01861655712 0.1023044884 
-0.1163265109 0.02101445198 0.09541645646 
-0.1158849001 0.02359294891 0.08842778206 
-0.1153987646 0.02623355389 0.08138376474 
-0.1149331927 0.02886104584 0.07431441545 
-0.1143716574 0.03161108494 0.06716299057 
-0.1134043336 0.03484582901 0.05977326632 
-0.1123207808 0.03822982311 0.05228152871 
-0.1113297939 0.04151928425 0.04479163885 
-0.1098307967 0.04541873932 0.03699317575 
-0.107181251 0.05068826675 0.0285345614 
-0.1038143635 0.05682551861 0.01962003112 
0.01358604431 0.0728713274 0.3893588781 
-0.04170757532 0.01621651649 0.3893035054 
-0.08197593689 -0.02468508482 0.3880983591 
-0.08342444897 -0.02441936731 0.3824057579 
-0.08414143324 -0.02337259054 0.3766113818 
-0.08453172445 -0.02197283506 0.3707582355 
-0.08502066135 -0.02067351341 0.3649026752 
-0.085475564 -0.01933288574 0.3590261042 
-0.08572053909 -0.0177615881 0.3530994654 
-0.08607697487 -0.01630449295 0.3471723497 
-0.0856282115 -0.01397365332 0.3410874605 
-0.08590865135 -0.01242172718 0.3351056278 
-0.08493733406 -0.009509086609 0.3288706541 
-0.07771837711 0.0001899003983 0.321390003 
-0.07770889997 0.00209236145 0.3152343035 
-0.07847249508 0.003160595894 0.3092151284 
-0.07953637838 0.003905177116 0.3032470345 
-0.08481615782 4.589557648e-05 0.298199296 
-0.09482216835 -0.009002506733 0.2942736149 
-0.1014764905 -0.01440894604 0.2896757126 
-0.1060547829 -0.01755452156 0.2846450508 
-0.1094848514 -0.0194478631 0.2793691158 
-0.1121122837 -0.0204629302 0.2739124298 
-0.1137174368 -0.02035200596 0.2682011127 
-0.114608407 -0.01944977045 0.2622966766 
-0.1152452826 -0.01826196909 0.2563108802 
-0.1156603098 -0.01682299376 0.2502474785 
-0.1163031459 -0.01563221216 0.2442319095 
-0.1165524125 -0.01399743557 0.2380845547 
-0.1166511178 -0.01218801737 0.2318708003 
-0.1166718602 -0.01028424501 0.2256098986 
-0.116957128 -0.00866985321 0.2194088101 
-0.1171467304 -0.00694167614 0.2131560743 
-0.1173072457 -0.00517386198 0.2068716288 
-0.1174536943 -0.003383219242 0.2005598247 
-0.117739439 -0.001743078232 0.194273293 
-0.1178059578 0.0001519918442 0.1878882051 
-0.1175608635 0.002408623695 0.1813661754 
-0.1175777912 0.004375815392 0.1749115884 
-0.1174464822 0.006519913673 0.1683759391 
-0.1172611713 0.008734464645 0.1617918015 
-0.1171715856 0.01084804535 0.1552163363 
-0.1169973016 0.01306724548 0.1485797167 
-0.1166388988 0.01550710201 0.141839534 
-0.1164010167 0.01781785488 0.1351173222 
-0.1161625981 0.02013838291 0.1283646822 
-0.1158128381 0.02259731293 0.1215339303 
-0.1154212356 0.02511441708 0.1146527231 
-0.1148824692 0.02781271935 0.1076731682 
-0.114066422 0.03084456921 0.1005330384 
-0.1132359505 0.03390538692 0.09334629774 
-0.1122384071 0.03717410564 0.08604103327 
-0.1113260984 0.04035615921 0.07873293757 
-0.1100336313 0.04399728775 0.07119941711 
-0.1082369089 0.04824602604 0.06337046623 
-0.1061839461 0.05281400681 0.055357337 
-0.1041206121 0.05741298199 0.047277987 
-0.09748870134 0.06743443012 0.03679218888 
-0.03478872776 0.03242778778 0.3892655969 
-0.08307546377 -0.01739954948 0.3889319003 
-0.08506864309 -0.01771068573 0.3832908571 
-0.08557605743 -0.01642489433 0.3774544597 
-0.08597278595 -0.01501488686 0.3715869784 
-0.08632087708 -0.01354718208 0.3656953573 
-0.08663892746 -0.01204150915 0.3597813845 
-0.08690601587 -0.01047480106 0.3538410068 
-0.08704328537 -0.008761405945 0.3478600383 
-0.08700835705 -0.006854176521 0.3418283463 
-0.08619385958 -0.004090070724 0.3356332183 
-0.08665335178 -0.002706706524 0.3296419978 
-0.07699334621 0.009752511978 0.3216788173 
-0.0767134428 0.0119780302 0.3154380023 
-0.07710140944 0.01347839832 0.3093079031 
-0.07823085785 0.01416873932 0.3033176064 
-0.08394044638 0.009812951088 0.2983270884 
-0.09470808506 -0.0001459717751 0.2945383191 
-0.1017743349 -0.00604736805 0.2900073826 
-0.1067664027 -0.009671568871 0.2850503922 
-0.1106178164 -0.01204282045 0.2798561454 
-0.1131515503 -0.01295661926 0.2743560672 
-0.1146997809 -0.01277500391 0.2686098218 
-0.1156676412 -0.01194423437 0.2627055645 
-0.1161284447 -0.01054251194 0.2566512823 
-0.1166962981 -0.009255588055 0.2506097257 
-0.1168821454 -0.007534325123 0.2444414198 
-0.1171145439 -0.005858659744 0.2382652462 
-0.1172742248 -0.004094362259 0.2320458591 
-0.1173616052 -0.002241551876 0.2257817388 
-0.1172955632 -0.0002076029778 0.2194454074 
-0.1173980236 0.001643061638 0.2131380439 
-0.1174510717 0.0035572052 0.2067907453 
-0.1172649264 0.005751490593 0.2003378272 
-0.1170369983 0.00800216198 0.1938424408 
-0.1169430614 0.01010847092 0.1873657703 
-0.1168041825 0.01227462292 0.1808458269 
-0.1165454388 0.01458704472 0.174253881 
-0.1163298488 0.01685917377 0.1676484644 
-0.1159103513 0.01937544346 0.1609355211 
-0.1155677438 0.0218129158 0.1542201638 
-0.1152342558 0.02424967289 0.1474769115 
-0.1147056818 0.02692246437 0.1406229138 
-0.1141396165 0.02964949608 0.1337186694 
-0.1135363579 0.03243100643 0.126763165 
-0.1125113368 0.03571593761 0.1195906997 
-0.1114796996 0.03902184963 0.1123724282 
-0.1102392673 0.04258596897 0.1050181389 
-0.1088308692 0.04636180401 0.09754124284 
-0.1068734527 0.05079889297 0.08976250887 
-0.1039971709 0.05633759499 0.08149603009 
-0.1001026034 0.06310176849 0.07267299294 
-0.0288169384 0.04782140255 0.3893530965 
-0.08248049021 -0.008229911327 0.3895658255 
-0.0861685276 -0.01036995649 0.3841103017 
-0.08668571711 -0.009077906609 0.3782577515 
-0.08685725927 -0.007405102253 0.3723413348 
-0.08708268404 -0.005784809589 0.3664127588 
-0.08732908964 -0.004181325436 0.3604678512 
-0.08740323782 -0.002383351326 0.3544761539 
-0.08749693632 -0.000600039959 0.3484660089 
-0.0873580575 0.001445174217 0.3423941135 
-0.08567762375 0.005192995071 0.3360209167 
-0.08694398403 0.005709171295 0.3301503658 
-0.07455468178 0.02129733562 0.321641773 
-0.07335537672 0.02457249165 0.3151748776 
-0.07342708111 0.02645218372 0.3089301586 
-0.07467073202 0.02703821659 0.3029120564 
-0.08210003376 0.02074790001 0.2982462645 
-0.09391981363 0.009541511536 0.2946528792 
-0.1016224027 0.002887964249 0.2902361453 
-0.1069113016 -0.001091301441 0.2853212357 
-0.1108111739 -0.00352960825 0.2801120877 
-0.1135972738 -0.004726588726 0.2746499181 
-0.1153706312 -0.004789054394 0.2689381838 
-0.1161259413 -0.003704190254 0.2629540861 
-0.1166195273 -0.002319455147 0.2568844855 
-0.1169624329 -0.0007588863373 0.2507551014 
-0.1172590852 0.0008603334427 0.244592756 
-0.1172479391 0.002835512161 0.2383189201 
-0.1172329783 0.004822850227 0.2320191264 
-0.1171895266 0.006850361824 0.2256854773 
-0.1169829369 0.009072422981 0.2192744017 
-0.1168153286 0.01125872135 0.2128479481 
-0.1165599823 0.01355421543 0.2063646615 
-0.116042614 0.01616001129 0.1997632384 
-0.1158983111 0.01834642887 0.1932581961 
-0.1155347228 0.02079474926 0.1866476238 
-0.1151692867 0.02325487137 0.1800051033 
-0.1145516038 0.02601718903 0.1732381284 
-0.113920927 0.02880561352 0.1664308608 
-0.1133887768 0.03149080276 0.1596256196 
-0.1123161912 0.03481662273 0.1525743306 
-0.1114643216 0.03789806366 0.1455682218 
-0.110098362 0.04159379005 0.1383134127 
-0.1089286804 0.04507410526 0.1310921013 
-0.1070358753 0.0494184494 0.1235206723 
-0.1047732234 0.05421602726 0.1157341897 
-0.1017183065 0.05996787548 0.1075390875 
-0.09496641159 0.07011473179 0.09762525558 
-0.02301120758 0.06322312355 0.389475584 
-0.07870262861 0.004494786263 0.3898261487 
-0.08655291796 -0.00219476223 0.3848437965 
-0.08702558279 -0.0008354187012 0.3789630532 
-0.08706152439 0.001008152962 0.3730053306 
-0.08706319332 0.00289607048 0.367020607 
-0.08718234301 0.004661917686 0.3610311151 
-0.0870667696 0.00669324398 0.354983151 
-0.08690804243 0.008780002594 0.3489036262 
-0.0867177844 0.01090955734 0.3427935243 
-0.08404695988 0.01579833031 0.3362141252 
-0.08500438929 0.01667428017 0.3302487433 
-0.06630253792 0.03943920135 0.3204931915 
-0.06118661165 0.04713785648 0.3131649792 
-0.06525617838 0.04661118984 0.3012676537 
-0.07854157686 0.03372514248 0.2977926433 
-0.09220737219 0.0203615427 0.2945614457 
-0.1005978584 0.01288723946 0.2902638316 
-0.1063421369 0.008369803429 0.2854226828 
-0.110689044 0.005414485931 0.2802919149 
-0.11345613 0.004237413406 0.2747961879 
-0.1152638197 0.00414454937 0.2690646648 
-0.1160341501 0.005230903625 0.2630562186 
-0.1163371801 0.006854176521 0.2569056749 
-0.1168217659 0.008276343346 0.2507862747 
-0.1169186831 0.01014757156 0.2445369959 
-0.1166062355 0.01249551773 0.238142997 
-0.1162750721 0.01487410069 0.2317139804 
-0.1159703135 0.0172317028 0.225263387 
-0.115558207 0.01972258091 0.2187490463 
-0.1151192188 0.02225410938 0.2121946812 
-0.1145399809 0.02495825291 0.2055617869 
-0.1140376925 0.02758395672 0.1989208162 
-0.1133129597 0.03047859669 0.1921694875 
-0.1125249267 0.0334584713 0.1853590012 
-0.1116684079 0.03653025627 0.1784858704 
-0.1103920341 0.04010534286 0.1714185476 
-0.1093317866 0.04344153404 0.1643871367 
-0.1075896025 0.04759180546 0.157050997 
-0.105707407 0.0519233942 0.1496068239 
-0.1025618911 0.05776166916 0.1416026056 
-0.09812915325 0.06514394283 0.1329995096 
-0.0176987052 0.07827162743 0.3896695971 
-0.07195544243 0.02063119411 0.3897458017 
-0.08600068092 0.007079958916 0.3854652941 
-0.08642560244 0.008513331413 0.3795497417 
-0.08641815186 0.010430336 0.3735572696 
-0.08636325598 0.01240706444 0.3675351143 
-0.0860850811 0.01463925838 0.3614555597 
-0.08560085297 0.01710915565 0.3553167284 
-0.08507716656 0.01963245869 0.3491418362 
-0.08439350128 0.02234399319 0.3429091871 
-0.08047670126 0.02868294716 0.3360675573 
-0.08106017113 0.03000199795 0.3299822211 
-0.07299369574 0.04910433292 0.2969086766 
-0.08928364515 0.03266859055 0.2942000628 
-0.09886950254 0.02378571033 0.2901306152 
-0.1050001383 0.01880121231 0.2853411734 
-0.1096021533 0.01554071903 0.2802355289 
-0.1126635075 0.01402831078 0.2747787833 
-0.1143673658 0.01406419277 0.2689865828 
-0.1150420904 0.01528084278 0.2629182935 
-0.1153079867 0.0169724226 0.2567224503 
-0.1157113314 0.01851212978 0.250544548 
-0.1153663397 0.02092170715 0.2441310585 
-0.1149138212 0.02346515656 0.2376557887 
-0.1141368151 0.02639460564 0.2310502827 
-0.1133154631 0.02938711643 0.2243945301 
-0.1125894785 0.03228068352 0.2177317142 
-0.1117478609 0.0353205204 0.2109949887 
-0.1108050942 0.03849065304 0.2041865289 
-0.1092988849 0.04233300686 0.1971466243 
-0.1080174446 0.04592704773 0.1901363432 
-0.1061967611 0.0501691103 0.1828894615 
-0.1036310196 0.05530548096 0.175319016 
-0.1003841758 0.06126606464 0.1674316525 
-0.09332764149 0.07175409794 0.1580317914 
-0.06578761339 0.03632974625 0.3897507489 
-0.08417510986 0.01785612106 0.3859350681 
-0.0844501853 0.01948094368 0.3799627721 
-0.08405637741 0.02185833454 0.3738791347 
-0.08343881369 0.02449476719 0.3677350581 
-0.08267176151 0.02730858326 0.3615370989 
-0.08163249493 0.03043878078 0.3552627563 
-0.08019798994 0.03402507305 0.3488861918 
-0.07787650824 0.03862428665 0.3423151076 
-0.07220304012 0.04702401161 0.33509323 
-0.08369070292 0.04816818237 0.2932409942 
-0.0951410532 0.03709149361 0.2895357013 
-0.1023183465 0.03087854385 0.2849416137 
-0.1071922183 0.02729153633 0.2798553407 
-0.1106059551 0.0253739357 0.2744425833 
-0.1122563481 0.0254856348 0.2685937285 
-0.1129023433 0.02676033974 0.2624745071 
-0.1125991344 0.02914083004 0.2560787201 
-0.1126778722 0.0310870409 0.249761343 
-0.1116636992 0.03431332111 0.2431038618 
-0.1108207703 0.03735280037 0.2364572287 
-0.1096234918 0.04081845284 0.229665339 
-0.1080952883 0.0446857214 0.2227275372 
-0.1062671542 0.04892039299 0.2156461775 
-0.1039894223 0.0537006855 0.2083657086 
-0.1011635661 0.05914616585 0.2008430958 
-0.09512424469 0.06840777397 0.1921590269 
-0.06014531851 0.05163645744 0.3898335695 
-0.08015078306 0.03120923042 0.3861415982 
-0.07943814993 0.03397464752 0.3799887896 
-0.07832080126 0.03720629215 0.3737479448 
-0.07664036751 0.04108500481 0.3673880696 
-0.0731870532 0.04698133469 0.3607159853 
-0.08790177107 0.05461394787 0.2881299853 
-0.09753698111 0.04552423954 0.2840433121 
-0.1031604409 0.04105556011 0.2790787816 
-0.1067307591 0.03895735741 0.2736483812 
-0.1084393859 0.03902029991 0.2677586377 
-0.1083678007 0.04116225243 0.2613916993 
-0.1074644923 0.04428601265 0.2547700405 
-0.106267035 0.0477669239 0.2480271161 
-0.1046268344 0.05178177357 0.2411133945 
-0.101786375 0.05722558498 0.2337944806 
-0.09731447697 0.06461501122 0.2259130478 
-0.08310127258 0.07163441181 0.2808422446 
-0.09377563 0.06125402451 0.2769888341 
-0.09805011749 0.0583422184 0.2716408372 
-0.09924072027 0.05904459953 0.2655254602 
