# .PCD v0.7 - Point Cloud Data file format
VERSION 0.7
FIELDS x y z
SIZE 4 4 4
TYPE F F F
COUNT 1 1 1
WIDTH 276
HEIGHT 1
VIEWPOINT 0 0 0 1 0 0 0
POINTS 276
DATA ascii
0.01929585263 -0.04686135426 0.1257338524 
0.01373384707 -0.04669503868 0.1288366914 
0.008225006051 -0.04660838097 0.1304534078 
0.002739701653 -0.04657479748 0.1310799718 
-0.002739951015 -0.04657903686 0.1310008764 
-0.008228374645 -0.04662747681 0.1300972104 
-0.01374177076 -0.04672206938 0.1283324361 
-0.01932276599 -0.04692671075 0.1245145202 
0.03037386201 -0.0414189063 0.1242402196 
0.02469797991 -0.04116328433 0.1296451092 
0.01915430836 -0.04104495421 0.1321470141 
0.01366136502 -0.04098406807 0.1334344149 
0.007801972795 -0.03900988773 0.1751763821 
0.002594616963 -0.03891915828 0.1770948172 
-0.002595764585 -0.03893636912 0.1767308712 
-0.008190151304 -0.0409507826 0.1341382265 
-0.01366258413 -0.04098780453 0.1333554387 
-0.01916167513 -0.04106073827 0.1318132877 
-0.02471056581 -0.04118430242 0.1292006969 
-0.03044202551 -0.04151185602 0.1222748756 
0.03583400697 -0.03583400697 0.1257617474 
0.03013851307 -0.0356182307 0.13102597 
0.02459165454 -0.03552125022 0.133392036 
0.01815818995 -0.03372234479 0.1772797108 
0.01296817511 -0.03371722251 0.1774047017 
0.0077806646 -0.03371622041 0.17742908 
0.002593496814 -0.03371536359 0.1774500608 
-0.002593425103 -0.03371442854 0.1774728298 
-0.007780133747 -0.0337139219 0.1774852276 
-0.01296637487 -0.03371260315 0.1775173545 
-0.01816401258 -0.0337331593 0.177015841 
-0.0245921649 -0.03552202508 0.1333731413 
-0.03014161251 -0.03562189266 0.1309366226 
-0.03587000817 -0.03587000817 0.1248834133 
0.04141742736 -0.03037277795 0.124271512 
0.03561924398 -0.03013936989 0.1310012937 
0.03004399128 -0.03004399128 0.1337512732 
0.02334489487 -0.02853263542 0.1773277521 
0.01815683022 -0.02853216603 0.1773412824 
0.01296878234 -0.02853130177 0.1773661971 
0.007781142835 -0.02853087336 0.1773785353 
0.002593683545 -0.02853044495 0.1773908734 
-0.002593637211 -0.02852993459 0.1774055958 
-0.007780679967 -0.02852917649 0.1774274707 
-0.01296742633 -0.02852837183 0.1774506569 
-0.01815333217 -0.02852666937 0.1774997711 
-0.02333813906 -0.02852440812 0.177564919 
-0.03004091978 -0.03004091978 0.1338398457 
-0.03562103212 -0.03014088422 0.1309576035 
-0.04150469229 -0.03043677099 0.1224263906 
0.04116571322 -0.02469943836 0.12959373 
0.03552136198 -0.02459173091 0.1333892941 
0.02853397839 -0.02334599383 0.1772890091 
0.02334610745 -0.02334610745 0.177284956 
0.01815786585 -0.02334584109 0.1772943735 
0.01296957768 -0.02334523574 0.177315712 
0.007781621069 -0.02334488742 0.1773279905 
0.002593842801 -0.02334453538 0.1773403883 
-0.002593803918 -0.0233441852 0.1773527265 
-0.007781269494 -0.02334383316 0.1773651242 
-0.01296847779 -0.02334329858 0.1773839593 
-0.01815472171 -0.02334179915 0.1774368286 
-0.02334075607 -0.02334078029 0.1774727106 
-0.02853046358 -0.02334311791 0.177390337 
-0.03551828489 -0.0245896019 0.1334643364 
-0.04117230326 -0.02470339276 0.1294543743 
0.04686052352 -0.01929551177 0.1257493496 
0.0410515219 -0.01915737242 0.1320081949 
0.03372439742 -0.0181592945 0.1772296429 
0.02853531949 -0.01815883815 0.1772503257 
0.02334726788 -0.01815897599 0.1772440672 
0.01815878414 -0.01815878414 0.1772527695 
0.01297037583 -0.01815851219 0.1772651076 
0.007782098837 -0.01815823838 0.1772774458 
0.00259400229 -0.01815796643 0.177289784 
-0.002593972487 -0.01815775782 0.1772992611 
-0.007781819906 -0.01815758832 0.1773069501 
-0.01296950225 -0.01815732196 0.1773189902 
-0.01815580763 -0.01815580763 0.1773875952 
-0.02334148623 -0.01815449819 0.1774469614 
-0.0285262689 -0.01815307885 0.1775112748 
-0.03377956152 -0.0181889981 0.17588377 
-0.04104840755 -0.01915592141 0.1320739985 
-0.04690893739 -0.01931544766 0.1248461008 
0.04669368267 -0.01373344846 0.1288620234 
0.04099097475 -0.01366366632 0.1332883835 
0.03372431174 -0.01297090203 0.177231729 
0.02853624336 -0.01297102869 0.1772236824 
0.02334800735 -0.01297111809 0.17721802 
0.01816026308 -0.01297162753 0.1771857142 
0.01297156699 -0.01297156699 0.1771895289 
0.007782873232 -0.01297147106 0.1771956086 
0.002594275167 -0.01297135092 0.177203238 
-0.002594250953 -0.01297122985 0.177210927 
-0.007782656234 -0.01297110971 0.1772185564 
-0.01296992972 -0.01296995394 0.1772918701 
-0.01815579273 -0.01296843495 0.1773882508 
-0.02334172651 -0.0129676424 0.1774384975 
-0.0285271313 -0.01296688709 0.1774864197 
-0.03371462971 -0.0129671786 0.1774679422 
-0.04097844288 -0.01365949027 0.1335533261 
-0.0467126891 -0.01373903826 0.1285074353 
0.04661652818 -0.008226443082 0.1303014755 
0.03893408552 -0.007786812261 0.176779151 
0.03372513875 -0.007782722358 0.1772115231 
0.02853670716 -0.007782733999 0.177210331 
0.02334788628 -0.007782620378 0.1772223115 
0.01816147938 -0.007783487439 0.1771306396 
0.01297273766 -0.007783632725 0.1771153212 
0.00778359687 -0.00778359687 0.1771190763 
0.00259452872 -0.007783561479 0.1771228313 
-0.002594517078 -0.007783526555 0.1771265268 
-0.007783459499 -0.007783459499 0.1771336198 
-0.01297035627 -0.007782218512 0.1772648096 
-0.01815616153 -0.007781208958 0.1773715615 
-0.02334173955 -0.007780580316 0.1774380207 
-0.02852708101 -0.007780108601 0.1774878502 
-0.03371175751 -0.007779634092 0.1775380373 
-0.04094566405 -0.00818912778 0.1342464089 
-0.04662336037 -0.008227649145 0.1301739812 
0.04658628628 -0.002740377327 0.1308656335 
0.03892034665 -0.002594696358 0.177069664 
0.03372550011 -0.002594276797 0.1772027016 
0.02853729762 -0.002594306599 0.177193284 
0.02334850095 -0.002594283316 0.1772006154 
0.01816210151 -0.002594592981 0.1771024466 
0.01297387946 -0.002594780875 0.1770428419 
0.007784157526 -0.002594727324 0.1770598292 
0.002594674006 -0.002594674006 0.177076757 
-0.002594620222 -0.002594620222 0.1770938039 
-0.007783362642 -0.002594462363 0.1771438718 
-0.01297078189 -0.002594166202 0.1772378087 
-0.01815652847 -0.0025937967 0.1773549914 
-0.02334197797 -0.002593561076 0.1774296761 
-0.02852709405 -0.002593379002 0.1774874926 
-0.03371178359 -0.002593221841 0.177537322 
-0.04092763737 -0.002728516003 0.1346275806 
-0.0465853475 -0.002740322147 0.1308831573 
0.04659133404 0.002740674419 0.1307714581 
0.03891913593 0.002594615798 0.1770952344 
0.0337264277 0.002594348043 0.1771801114 
0.02853678539 0.002594260033 0.177208066 
0.02334930189 0.002594372258 0.1771724224 
0.01816236228 0.002594630234 0.1770906448 
0.01297388785 0.002594782505 0.1770423055 
0.007784356829 0.002594793914 0.1770387292 
0.00259474013 0.00259474013 0.1770557761 
-0.002594641643 0.002594641643 0.177087009 
-0.007783263456 0.002594429301 0.1771543622 
-0.0129710352 0.00259421696 0.1772217155 
-0.01815689541 0.00259384932 0.1773383021 
-0.02334245108 0.002593613695 0.1774129868 
-0.02852710895 0.002593380166 0.1774870753 
-0.03371180221 0.002593223006 0.1775369048 
-0.04092918336 0.002728619147 0.1345948577 
-0.04658352211 0.002740214812 0.1309171915 
0.04662412405 0.008227783255 0.1301597357 
0.03893827647 0.007787649985 0.1766905785 
0.03372647241 0.00778303016 0.1771789789 
0.02853627317 0.007782615256 0.1772228479 
0.02334957197 0.007783182431 0.1771628857 
0.01816183515 0.007783640642 0.1771144867 
0.01297351159 0.00778409699 0.1770662069 
0.007784554269 0.007784554269 0.1770178676 
0.00259480672 0.007784395479 0.1770346761 
-0.002594608581 0.007783801295 0.1770974994 
-0.007783163805 0.007783163805 0.1771648526 
-0.01297086943 0.007782526314 0.1772322655 
-0.01815741137 0.007781744469 0.1773149371 
-0.02334292047 0.0077809738 0.1773964167 
-0.02852766402 0.007780267857 0.1774710417 
-0.03371181712 0.007779648062 0.1775365472 
-0.04094555601 0.00818910636 0.1342486739 
-0.04662381113 0.008227728307 0.1301655769 
0.04670185968 0.01373582799 0.1287094355 
0.04099808261 0.01366601046 0.1331380606 
0.03372619674 0.01297160331 0.1771857142 
0.02853601612 0.01297090109 0.1772302389 
0.02334896289 0.01297162473 0.1771843433 
0.01816135459 0.0129723819 0.177136302 
0.01297316421 0.01297313906 0.1770882607 
0.007784342859 0.01297389623 0.1770402193 
0.002594765276 0.01297377702 0.1770477891 
-0.002594554797 0.01297272462 0.1771145463 
-0.007783008274 0.01297167223 0.1771813035 
-0.01297061983 0.01297061983 0.1772480607 
-0.01815741509 0.01296956837 0.1773147583 
-0.02334310859 0.01296838559 0.1773898005 
-0.02852776833 0.01296715159 0.1774680614 
-0.03371176124 0.01296605077 0.1775379181 
-0.04098093882 0.01366029587 0.133500576 
-0.04671187326 0.01373877283 0.1285226345 
0.04686122388 0.01929579861 0.1257362962 
0.04105838761 0.01916057803 0.131862998 
0.03372943774 0.01816200837 0.1771066785 
0.02853620611 0.01815940253 0.1772247553 
0.02334852889 0.01815995574 0.1771996617 
0.01816101559 0.01816101559 0.17715168 
0.012972611 0.01816164143 0.1771233082 
0.007783646695 0.01816185005 0.177113831 
0.002594587393 0.01816206239 0.1771042347 
-0.002594389953 0.01816068031 0.1771668196 
-0.007782513741 0.01815920696 0.1772335768 
-0.0129697891 0.01815772429 0.1773007512 
-0.01815614849 0.01815614849 0.1773721576 
-0.02334160358 0.01815458946 0.1774428487 
-0.02852592245 0.0181528572 0.1775212884 
-0.03379678726 0.01819827408 0.1754635572 
-0.04104434699 0.01915402524 0.1321598887 
-0.0469042547 0.01931351796 0.1249334812 
0.04117349163 0.02470407821 0.1294292808 
0.03552873805 0.0245968122 0.1332093477 
0.02853772789 0.02334903739 0.1771808863 
0.02334777825 0.02334775403 0.1772261262 
0.01815958321 0.02334802598 0.1772165298 
0.01297129132 0.0233482942 0.1772070527 
0.007782854605 0.02334856428 0.1771975756 
0.002594323363 0.02334883623 0.1771879792 
-0.002594224876 0.02334795147 0.1772191525 
-0.007782002445 0.02334600687 0.1772876382 
-0.01296887081 0.02334398217 0.1773590446 
-0.01815486327 0.02334195748 0.1774303913 
-0.02333995141 0.02333995141 0.1775010824 
-0.02852752991 0.02334069274 0.177474916 
-0.03551533073 0.02458752878 0.133536458 
-0.0411705561 0.02470231801 0.1294913292 
0.04143311456 0.03038428165 0.1239398122 
0.03562910482 0.03014771268 0.1307607293 
0.03004902601 0.03004902601 0.1336061358 
0.02334609441 0.02853410318 0.1772854328 
0.01815832779 0.02853451855 0.1772734523 
0.01297033112 0.02853470854 0.1772679687 
0.007782239467 0.02853489481 0.1772626042 
0.00259409612 0.02853498422 0.1772599816 
-0.002594022546 0.02853417397 0.1772833467 
-0.007781356107 0.02853165381 0.1773560047 
-0.01296780631 0.02852921002 0.177426517 
-0.0181533955 0.02852676809 0.1774969101 
-0.0233402513 0.02852699161 0.1774904728 
-0.03003487736 0.03003487736 0.13401407 
-0.03561765328 0.03013802506 0.1310400367 
-0.04146749526 0.03040949628 0.1232128143 
0.03585778549 0.03585778549 0.1251816154 
0.0301489383 0.03563055024 0.1307253838 
0.02459717356 0.03552922234 0.133197546 
0.0181625504 0.03373044357 0.1770821214 
0.01296933182 0.03372022882 0.1773313284 
0.007781529333 0.03371996805 0.1773376465 
0.002593789715 0.03371916711 0.1773571968 
-0.002593672834 0.03371764719 0.1773942709 
-0.007780624088 0.03371604532 0.1774333715 
-0.0129666226 0.03371324763 0.1775016189 
-0.01817188784 0.03374778479 0.1766590476 
-0.02458619513 0.03551340103 0.1335834861 
-0.03013749234 0.03561702371 0.1310554147 
-0.03585382178 0.03585382178 0.1252782941 
0.0304123573 0.04147139937 0.1231303215 
0.02471339703 0.04118897766 0.1291018128 
0.01916290261 0.04106336832 0.1317576766 
0.01366284862 0.04098851979 0.1333402991 
0.008190886118 0.04095445573 0.1340605617 
0.002597007202 0.03895501047 0.1763367653 
-0.002600362524 0.03900533915 0.175272584 
-0.008188495412 0.04094250128 0.1343132854 
-0.01365957409 0.04097877443 0.1335463524 
-0.0191533044 0.04104280099 0.1321925521 
-0.02469855919 0.04116429016 0.1296237707 
-0.03040215932 0.04145749286 0.1234243512 
0.0193238128 0.04692925885 0.1244670153 
0.01374483295 0.04673239216 0.1281398535 
0.008229161613 0.04663193226 0.1300140619 
0.002740196185 0.04658320546 0.130923152 
-0.002739985706 0.04657962546 0.1309899092 
-0.008227029815 0.04661985487 0.1302393675 
-0.01373517141 0.04669963196 0.1287510395 
-0.01930257864 0.04687768593 0.1254291534 
